# .PCD v0.7 - Point Cloud Data file format
VERSION 0.7
FIELDS x y z
SIZE 4 4 4
TYPE F F F
COUNT 1 1 1
WIDTH 1349
HEIGHT 1
VIEWPOINT 0 0 0 1 0 0 0
POINTS 1349
DATA ascii
0.025881695 0.7263487 -0.084057033
0.027197367 0.72635823 -0.083533973
0.028520897 0.72639555 -0.083026886
0.029851785 0.72647345 -0.082560427
0.031189656 0.726583 -0.082119323
0.032528631 0.72670615 -0.081691436
0.033871025 0.72687268 -0.081307076
0.035318207 0.72680724 -0.081202835
0.036657117 0.72700948 -0.080862075
0.038172953 0.72672272 -0.081068411
0.039495632 0.72695786 -0.080769241
0.040820483 0.72721696 -0.080499202
0.04214463 0.7274946 -0.080248877
0.043474242 0.72780579 -0.080024138
0.044804823 0.72814143 -0.07982368
0.046133108 0.72848964 -0.079638511
0.047463603 0.72883952 -0.079456486
0.048794646 0.72920567 -0.079289697
0.05011978 0.72958046 -0.079135597
0.051342569 0.73134905 -0.077625349
0.052746784 0.73088366 -0.078284428
0.054085739 0.73126274 -0.078130923
0.055411655 0.73191398 -0.077700749
0.056752879 0.73229104 -0.077542469
0.058093194 0.73266006 -0.077383168
0.059430528 0.73303056 -0.077226937
0.060783435 0.73396116 -0.07649231
0.062111408 0.7337606 -0.076892339
0.063454092 0.73410743 -0.076690696
0.064804129 0.7344538 -0.076473176
0.066154823 0.73477751 -0.076227486
0.067498572 0.73484445 -0.076250695
0.068853818 0.73517913 -0.075990833
0.070232227 0.73574388 -0.075442426
0.071592644 0.73603714 -0.075153358
0.072942875 0.73609912 -0.075120866
0.074303634 0.7363981 -0.074816793
0.075663157 0.73670292 -0.074516363
0.077022761 0.73701292 -0.074206047
0.078374326 0.737315 -0.073904641
0.079722263 0.73760849 -0.073609345
0.081067361 0.73791122 -0.073322818
0.082407124 0.73821658 -0.073035285
0.083753705 0.73852021 -0.07276611
0.085089765 0.73883057 -0.072504625
0.086427599 0.73914438 -0.072301842
0.087801337 0.73967856 -0.071960106
0.089147031 0.740013 -0.071829513
0.090626724 0.74299163 -0.069670886
0.09336748 0.74292332 -0.069964126
0.094717972 0.7432974 -0.069768891
0.09607733 0.7436496 -0.06957268
0.097415514 0.74486691 -0.0687446
0.10014825 0.74562609 -0.068418361
0.10150922 0.74599367 -0.068247303
0.10287768 0.74636996 -0.068094537
0.10424089 0.74673563 -0.067934699
0.10560686 0.74709457 -0.067772783
0.10696465 0.74650663 -0.068233639
0.10822874 0.74512905 -0.069330171
0.1095003 0.74462658 -0.069797054
0.11087006 0.74493325 -0.069621533
0.11223205 0.74524027 -0.069426574
0.11355538 0.74513257 -0.069545232
0.1149172 0.74543428 -0.06933745
0.11631494 0.7461856 -0.068809837
0.11766466 0.74651498 -0.068613783
0.11914185 0.74771774 -0.067789301
0.022907101 0.72651219 -0.085267805
0.024576509 0.72606194 -0.085162088
0.02590102 0.7260167 -0.084568828
0.02753908 0.72558743 -0.08452671
0.028861297 0.72559458 -0.083990224
0.03019293 0.72565329 -0.083498731
0.031531323 0.72574115 -0.083033718
0.032872818 0.72585607 -0.082594439
0.034326907 0.72575402 -0.082442835
0.035867397 0.72541833 -0.082577527
0.03719677 0.72560883 -0.082230709
0.038525265 0.72582418 -0.081901863
0.039854996 0.7260657 -0.081608325
0.04118336 0.72632772 -0.081334919
0.04251153 0.72660393 -0.081081331
0.04394874 0.7263639 -0.081369206
0.045267612 0.7266829 -0.081165895
0.046507999 0.7275852 -0.080461279
0.047909498 0.72737622 -0.080799542
0.049228229 0.72774065 -0.080636002
0.050548557 0.7281096 -0.080477081
0.051835045 0.7290625 -0.079807207
0.053132012 0.72999042 -0.079114936
0.054471884 0.73037404 -0.078963742
0.055808969 0.73075473 -0.078813136
0.057142358 0.73142451 -0.078404315
0.058484677 0.73179436 -0.078240857
0.059822708 0.73217505 -0.078090981
0.061162587 0.73255289 -0.077935271
0.062502459 0.73290896 -0.077758476
0.063845165 0.73326522 -0.077570818
0.065192193 0.73360306 -0.077354208
0.066543579 0.73393571 -0.077122465
0.067881145 0.73401529 -0.07715746
0.069238596 0.73433477 -0.076896518
0.07061509 0.73489368 -0.076353289
0.071957909 0.73494995 -0.076338343
0.073320821 0.73525476 -0.076055355
0.074677639 0.73555845 -0.075758919
0.076038472 0.7358613 -0.075454295
0.077395454 0.73616749 -0.075161576
0.078746662 0.73647559 -0.074875429
0.080097765 0.73677403 -0.074591331
0.081446059 0.73707926 -0.074319065
0.082789175 0.73739237 -0.074050136
0.084131815 0.73769903 -0.073779978
0.085476808 0.73800862 -0.073524699
0.08681336 0.73832017 -0.073289163
0.088150539 0.73863637 -0.073097974
0.089410745 0.73857981 -0.073329598
0.090644561 0.73854643 -0.073569469
0.091941014 0.73887032 -0.073397584
0.093265258 0.73918849 -0.073236816
0.094723746 0.73981947 -0.072782822
0.096071854 0.74008989 -0.072659314
0.097726353 0.7416873 -0.071354963
0.099081755 0.74202549 -0.071186408
0.10054079 0.74382055 -0.069810241
0.10186594 0.74339688 -0.070264138
0.10322464 0.74372983 -0.070077993
0.10452233 0.74330354 -0.070529118
0.10588235 0.74361324 -0.070345439
0.10724734 0.74391592 -0.070156522
0.10852763 0.74343467 -0.07064607
0.10988406 0.74374193 -0.0704742
0.11125761 0.74404526 -0.070288926
0.11257364 0.74393737 -0.070439734
0.11393265 0.7442506 -0.070235357
0.11528645 0.74456549 -0.070038103
0.11668945 0.74530882 -0.069505014
0.11804145 0.74563706 -0.069321983
0.11949098 0.74684632 -0.068485759
0.024922822 0.72539049 -0.086270712
0.026242914 0.72529119 -0.085623547
0.027574148 0.72523129 -0.085004695
0.029200451 0.72480083 -0.084961168
0.030534705 0.72484022 -0.084448002
0.03200192 0.72467959 -0.084222011
0.033334482 0.72475564 -0.083746672
0.034673847 0.72487843 -0.083316647
0.036215473 0.72453564 -0.083440416
0.03754596 0.72471684 -0.083073989
0.038880989 0.72493327 -0.082747497
0.040363133 0.72463721 -0.082955144
0.041680358 0.72489578 -0.082683317
0.042997155 0.72517538 -0.08243601
0.044316679 0.72546709 -0.082198977
0.045638878 0.72578585 -0.081994183
0.046962053 0.7261259 -0.081801295
0.048285015 0.72647333 -0.08161892
0.049605783 0.72683889 -0.081456989
0.050928913 0.7272079 -0.081296816
0.052216157 0.72816396 -0.080630288
0.053550895 0.72854757 -0.080481544
0.054881517 0.72893888 -0.080341853
0.05619799 0.72987789 -0.07966046
0.057538569 0.73026377 -0.079511508
0.058875121 0.73092365 -0.079095058
0.060217112 0.731305 -0.078944944
0.061555598 0.73169577 -0.078805819
0.062895007 0.73206151 -0.078636333
0.064236559 0.73241687 -0.078455448
0.065583259 0.73276722 -0.078254029
0.066912264 0.73283494 -0.078311488
0.068265259 0.73317677 -0.078073263
0.069623627 0.73349541 -0.077816688
0.071001455 0.73405081 -0.077271625
0.072339833 0.73411709 -0.077274166
0.073700465 0.73442709 -0.076995149
0.075056121 0.734743 -0.07671997
0.076417044 0.73504436 -0.076425418
0.077769846 0.73535562 -0.07614173
0.079122312 0.73565143 -0.075857684
0.08047609 0.73595959 -0.075584762
0.081822872 0.73627329 -0.075319313
0.083164372 0.73658341 -0.075063884
0.084508382 0.73689801 -0.074806646
0.085857995 0.73720229 -0.074557781
0.087142512 0.73717105 -0.074771062
0.088471957 0.7374627 -0.074545063
0.089801602 0.73776722 -0.074341923
0.091040097 0.73773414 -0.07458061
0.092347361 0.7380479 -0.074390233
0.093659885 0.73836863 -0.074202843
0.095102713 0.73901862 -0.07361389
0.096445188 0.73927778 -0.073486924
0.098110594 0.74080771 -0.072154477
0.09946429 0.74114871 -0.071978442
0.1008926 0.74214995 -0.071211681
0.10217551 0.74181294 -0.071626306
0.1035399 0.74212468 -0.071452163
0.10489757 0.74244189 -0.071270645
0.10626352 0.74273449 -0.071067154
0.10754389 0.74230492 -0.071516201
0.10890871 0.74257582 -0.071342535
0.11023324 0.74247479 -0.071499765
0.11160813 0.7427603 -0.071313016
0.11296201 0.74306333 -0.071145058
0.11431027 0.74337882 -0.070955113
0.1156671 0.74369502 -0.070764303
0.11707191 0.7444346 -0.070222013
0.11842927 0.74477148 -0.070045009
0.11992808 0.74682379 -0.068541124
0.026586661 0.72459745 -0.086711563
0.027915534 0.72449338 -0.086044773
0.029543759 0.72403497 -0.085964359
0.031011837 0.72381115 -0.085665412
0.032341238 0.72383463 -0.085135788
0.033679422 0.72390801 -0.084653407
0.035235461 0.72351867 -0.084714487
0.036565524 0.72365439 -0.08430022
0.038078044 0.72331357 -0.084439434
0.039397437 0.7235108 -0.08409448
0.040720012 0.72374541 -0.083794497
0.042044159 0.72399735 -0.083514035
0.04336416 0.72427833 -0.083264112
0.04468919 0.7245729 -0.083026513
0.046011906 0.724886 -0.08280842
0.047334265 0.72522187 -0.082614094
0.048658416 0.72557849 -0.082437128
0.049982291 0.72594899 -0.08227478
0.051306184 0.7263211 -0.08211229
0.052631259 0.72670847 -0.081967488
0.053934667 0.72766107 -0.081313208
0.055266976 0.72805488 -0.081174687
0.056597136 0.72845042 -0.081038788
0.057926379 0.72939509 -0.08036989
0.059265833 0.72978258 -0.080225013
0.06060338 0.73017132 -0.080081195
0.061948694 0.73083103 -0.079665482
0.063287809 0.73121601 -0.079519056
0.064630486 0.73157507 -0.079344697
0.065951891 0.73166686 -0.07945098
0.067253254 0.731475 -0.079828218
0.068606697 0.7318331 -0.079587027
0.069965415 0.73216712 -0.079327315
0.071366675 0.73298669 -0.078492276
0.0727228 0.73329753 -0.078223318
0.074079305 0.73361164 -0.077951826
0.075435899 0.73392367 -0.07767906
0.076792508 0.73424274 -0.077424228
0.078148603 0.73454642 -0.077141792
0.079500452 0.73486447 -0.076885186
0.080854952 0.73517632 -0.076624803
0.082203917 0.73547614 -0.07636556
0.083548158 0.73578477 -0.076111063
0.08489237 0.73609811 -0.075845212
0.086190999 0.73604614 -0.076093696
0.08753401 0.73635566 -0.075845636
0.088812903 0.73631305 -0.076094523
0.090137817 0.7366038 -0.075848967
0.09145651 0.7368933 -0.075642161
0.092756718 0.73720878 -0.075403303
0.094062485 0.73752797 -0.07519383
0.095501877 0.73817837 -0.074533477
0.097034693 0.73907965 -0.073681943
0.09849523 0.73993438 -0.072978199
0.099849097 0.74027175 -0.072795041
0.10120173 0.74061245 -0.072609328
0.10244811 0.74033988 -0.072973236
0.10381663 0.74062687 -0.072804347
0.1051809 0.74091512 -0.072639607
0.10655163 0.74119133 -0.072464965
0.10786892 0.74112648 -0.072604612
0.1092415 0.74138159 -0.072423965
0.11062305 0.74163204 -0.072224781
0.11199246 0.74189889 -0.072048806
0.11333671 0.74222183 -0.071860537
0.11469675 0.74253088 -0.07167697
0.1160344 0.74286586 -0.071494237
0.11744636 0.74358845 -0.070955887
0.1188819 0.74474752 -0.070102304
0.12029674 0.74679357 -0.068588257
0.026932843 0.7239514 -0.087848097
0.028256794 0.72378147 -0.087111287
0.029888151 0.72329712 -0.086996555
0.031355295 0.72303313 -0.086652942
0.032685373 0.72302091 -0.086081341
0.034254994 0.72258228 -0.086075813
0.035797935 0.72216958 -0.086117864
0.037105456 0.72227484 -0.085680582
0.038424946 0.72242701 -0.085285366
0.039753199 0.72262698 -0.084943309
0.041217647 0.7223227 -0.085134938
0.042530168 0.72257066 -0.084848925
0.043728106 0.72337639 -0.084080338
0.045057204 0.7236765 -0.083841674
0.046382651 0.72398949 -0.083621509
0.047710028 0.72432697 -0.083427005
0.049033999 0.72468001 -0.083250463
0.050359063 0.72505552 -0.083096623
0.051684551 0.72543359 -0.082939841
0.053011134 0.72582316 -0.082797959
0.054338321 0.72622186 -0.082665764
0.05565019 0.72718519 -0.08202558
0.056982961 0.72758663 -0.081892945
0.05831819 0.7279861 -0.081759498
0.059650477 0.72838193 -0.081622742
0.060993396 0.72931498 -0.080952011
0.062331133 0.72970593 -0.080812074
0.06366732 0.73009074 -0.080664061
0.064969771 0.72993672 -0.081075251
0.066302307 0.73029613 -0.080923788
0.067641154 0.73064584 -0.080738373
0.0689933 0.73100954 -0.080526397
0.070350237 0.73134804 -0.080279842
0.071708195 0.73168993 -0.08002346
0.073105089 0.73248917 -0.079181775
0.074462041 0.73281223 -0.078935526
0.075818002 0.73313314 -0.078691877
0.077174239 0.73344362 -0.078428388
0.07852751 0.73376697 -0.0781812
0.079881601 0.73408175 -0.077924892
0.081233807 0.7343958 -0.077674851
0.082582526 0.73469609 -0.07741759
0.083930522 0.73500341 -0.077159159
0.08527758 0.7353099 -0.076904573
0.086589195 0.73523498 -0.077198043
0.087927885 0.73554325 -0.076936908
0.08922717 0.73545623 -0.077240415
0.090553187 0.73577201 -0.076968789
0.091869898 0.73606533 -0.076729387
0.093174942 0.73637122 -0.076452844
0.094675653 0.73743784 -0.075216666
0.096071087 0.73794383 -0.074759103
0.097422153 0.73823339 -0.074542738
0.098766662 0.73855001 -0.074347667
0.10011528 0.7388708 -0.074153401
0.10145934 0.73920393 -0.073969163
0.1028194 0.73951185 -0.073776908
0.10418376 0.73980528 -0.073595963
0.10547758 0.73982942 -0.073692843
0.10684776 0.74010015 -0.073529884
0.10822305 0.7403608 -0.073367111
0.10959283 0.74062377 -0.073189273
0.11097482 0.7408703 -0.072991066
0.11235394 0.74110687 -0.072797716
0.11371821 0.74139321 -0.072608307
0.11505775 0.74172789 -0.072429143
0.11639911 0.74207187 -0.072245531
0.11782061 0.74276507 -0.071722262
0.11924727 0.74391055 -0.070865959
0.028600117 0.7231034 -0.088209853
0.030231755 0.72257155 -0.088040709
0.031698473 0.72226942 -0.087653227
0.033278707 0.72176754 -0.087572664
0.034831621 0.7212953 -0.087542288
0.036136545 0.72131646 -0.087012164
0.03745383 0.7213999 -0.086543448
0.038943239 0.72103101 -0.08665546
0.040254951 0.72120672 -0.086288087
0.0415693 0.72142023 -0.085956298
0.042887215 0.72167045 -0.085665926
0.044206768 0.72193909 -0.085396126
0.045524359 0.72223258 -0.085159101
0.046842266 0.72254747 -0.084946573
0.048156239 0.7228812 -0.084757015
0.049472433 0.7232517 -0.084598847
0.050740119 0.72415447 -0.083920859
0.052068137 0.72453707 -0.08377403
0.053396735 0.72493523 -0.083641969
0.054722656 0.725339 -0.083512299
0.05603791 0.72630525 -0.082877412
0.057372082 0.72671294 -0.082753539
0.05870717 0.7271179 -0.082625426
0.060038827 0.72752184 -0.082497083
0.061384406 0.72845846 -0.081829563
0.062722154 0.72885793 -0.081696026
0.064061031 0.72924268 -0.081548117
0.065363795 0.72909236 -0.081950165
0.066697389 0.72946447 -0.081801645
0.068036072 0.72981161 -0.081631541
0.069387279 0.73017049 -0.081457272
0.070740476 0.73050755 -0.081225932
0.072099783 0.73085773 -0.080993451
0.073454842 0.7312094 -0.080757588
0.074846134 0.73201573 -0.079927646
0.076200984 0.73234254 -0.079697371
0.077554032 0.73266554 -0.079456642
0.078909077 0.73298031 -0.079213358
0.080274604 0.73350447 -0.078691386
0.081627868 0.73381066 -0.078440204
0.082980417 0.73410493 -0.078182541
0.084329903 0.7344113 -0.077936217
0.085661553 0.73452187 -0.077962823
0.086984508 0.73440486 -0.078271344
0.088327914 0.73471254 -0.078025296
0.089668185 0.73503101 -0.077765331
0.091001429 0.73531252 -0.077491485
0.092330895 0.73561925 -0.077225387
0.093655542 0.73590881 -0.076962098
0.095116824 0.73682219 -0.075938813
0.096463948 0.73709875 -0.075688601
0.097811088 0.73739904 -0.075452529
0.099156521 0.7377072 -0.075231612
0.10050377 0.73801923 -0.075019196
0.10185505 0.7383287 -0.074808426
0.10320861 0.73864323 -0.074609473
0.10449781 0.738684 -0.07467521
0.10585878 0.73898876 -0.074506335
0.10721873 0.73929125 -0.074342623
0.1085794 0.73958999 -0.074177064
0.10995139 0.73985666 -0.074003898
0.11133288 0.74010873 -0.073806927
0.11270838 0.7403602 -0.073600911
0.11411896 0.74095923 -0.073044807
0.11547214 0.74128276 -0.072859801
0.11682267 0.74162769 -0.07267987
0.11824795 0.74272478 -0.071797647
0.030579291 0.72190684 -0.089146964
0.031906169 0.72174913 -0.08841303
0.033624142 0.72099936 -0.088560507
0.035168987 0.72048467 -0.088483535
0.036479272 0.72047287 -0.087912925
0.037980799 0.72004598 -0.087950662
0.039293066 0.72015125 -0.087507449
0.040608604 0.72031289 -0.087118857
0.042063497 0.71998483 -0.087284476
0.043371983 0.72022122 -0.086977959
0.044574372 0.72103608 -0.086221062
0.045893684 0.72132486 -0.085976914
0.047213577 0.72164875 -0.08577133
0.048529744 0.72198594 -0.085582666
0.049847271 0.7223472 -0.085415259
0.05112255 0.72326165 -0.084746443
0.052450262 0.72364616 -0.084599733
0.053780407 0.72403932 -0.084462002
0.055105343 0.72445077 -0.084342308
0.056425612 0.7254293 -0.083727054
0.057759296 0.72584039 -0.083606414
0.059094187 0.72625381 -0.083486587
0.06043712 0.72720176 -0.082842156
0.061776489 0.72760475 -0.082712412
0.063115634 0.72800201 -0.082576193
0.064454779 0.72838902 -0.082429104
0.06579446 0.72876853 -0.082274459
0.06713511 0.72914344 -0.082117349
0.068478532 0.72950542 -0.081948787
0.069784887 0.72932273 -0.082354851
0.071138591 0.72967058 -0.082163908
0.072489798 0.73001611 -0.081948087
0.073845632 0.73036337 -0.081725553
0.07523033 0.73121023 -0.08090093
0.076583095 0.73154449 -0.080682091
0.077935874 0.7318635 -0.080445476
0.079299599 0.73240316 -0.079927631
0.080652267 0.73271883 -0.079693951
0.082005158 0.73302519 -0.079449177
0.083357863 0.73331833 -0.079190895
0.084708005 0.73363 -0.078955084
0.086059757 0.73392892 -0.07870324
0.087411247 0.73422766 -0.078452915
0.088764012 0.73453093 -0.078203134
0.090114772 0.73483038 -0.077951893
0.091437452 0.73491752 -0.077960894
0.092783131 0.73517728 -0.077676125
0.094160728 0.7357043 -0.077165402
0.095509164 0.73598814 -0.076902755
0.09685602 0.73627442 -0.076641031
0.098203912 0.73655987 -0.076387338
0.099550456 0.736866 -0.07615228
0.10089687 0.73717701 -0.075921424
0.10224806 0.73747337 -0.07568723
0.10360076 0.73777467 -0.075459532
0.10487664 0.73785341 -0.075514518
0.10622982 0.73816723 -0.075332716
0.10758855 0.7384789 -0.075171985
0.10895466 0.73878294 -0.075022183
0.11032631 0.73906213 -0.074850254
0.11169847 0.73934686 -0.074667595
0.11311986 0.73990583 -0.074111544
0.11447841 0.74019492 -0.07389313
0.11583791 0.74048549 -0.073686436
0.11725453 0.74155802 -0.072769873
0.03225442 0.72103888 -0.089464381
0.033722617 0.72067428 -0.08900363
0.035509598 0.71969485 -0.089444399
0.036826242 0.71965337 -0.088838354
0.038326677 0.71920407 -0.08885061
0.039638817 0.71928012 -0.088371806
0.040959153 0.7194277 -0.087966084
0.042414974 0.71909165 -0.088116519
0.04372815 0.7193107 -0.087795451
0.044941247 0.7201342 -0.08704377
0.046264637 0.72042304 -0.086797938
0.047658008 0.72018576 -0.087070867
0.048964564 0.7205357 -0.086889647
0.050225139 0.72144848 -0.086228192
0.051545534 0.72182256 -0.086073436
0.052859627 0.72222227 -0.085939124
0.054165166 0.72315454 -0.085294411
0.055490926 0.72356957 -0.085178815
0.05681558 0.72454709 -0.084571242
0.058149558 0.72496921 -0.084462784
0.059484098 0.72538173 -0.084343158
0.060831212 0.72632962 -0.083706155
0.062170558 0.72674137 -0.083585523
0.063509248 0.72714859 -0.083459951
0.064849168 0.72753906 -0.083315961
0.066189349 0.72792292 -0.083164945
0.067530483 0.72829574 -0.083002508
0.068873413 0.7286604 -0.082833171
0.070217945 0.7290166 -0.082657084
0.07156413 0.72936833 -0.082473613
0.072913326 0.72971117 -0.08227443
0.074263938 0.73005122 -0.082065545
0.075614929 0.73038971 -0.081851318
0.076965868 0.73072445 -0.081638351
0.078317329 0.73104924 -0.081417747
0.090493105 0.73403025 -0.078939773
0.091844715 0.73431581 -0.078675456
0.094629146 0.73529738 -0.077645242
0.095989883 0.73557132 -0.07736253
0.09735512 0.7358498 -0.0770851
0.098718859 0.73613036 -0.076799877
0.099945106 0.73601103 -0.077073798
0.1012925 0.7363236 -0.076838434
0.10264156 0.73663485 -0.076604232
0.10399532 0.73691696 -0.076352701
0.10534494 0.73723257 -0.076129876
0.10669216 0.73757148 -0.075935505
0.10804298 0.73790753 -0.075749613
0.10939818 0.73824549 -0.075582996
0.11075973 0.73856932 -0.075413227
0.11212316 0.73887461 -0.075226605
0.11348633 0.73916173 -0.075019933
0.11484545 0.73943973 -0.074798748
0.11626433 0.74041593 -0.073797636
0.034316301 0.71951997 -0.090590492
0.035858776 0.71893752 -0.090432793
0.037173398 0.71885079 -0.089780323
0.038675066 0.71837592 -0.089755006
0.039990768 0.71842468 -0.0892516
0.041452792 0.71804208 -0.089352973
0.042770818 0.71819949 -0.088957727
0.044085987 0.7184093 -0.088625185
0.045404058 0.718665 -0.088338412
0.046712939 0.71895403 -0.088087402
0.048024133 0.71928161 -0.087880984
0.049333751 0.71962559 -0.087691613
0.05064695 0.71999627 -0.087527968
0.051926162 0.7209385 -0.086899191
0.053242993 0.72133416 -0.086763769
0.054561753 0.72174305 -0.086647265
0.055878438 0.72269088 -0.086020105
0.0572078 0.72366303 -0.085414946
0.058541611 0.72408831 -0.085310966
0.059875518 0.72450829 -0.085200317
0.061227072 0.72545999 -0.084573574
0.062566213 0.72587812 -0.084460273
0.063904382 0.72628701 -0.084336229
0.065243661 0.72669208 -0.084207825
0.066583104 0.72707665 -0.084055692
0.067923874 0.72745353 -0.083895631
0.069265857 0.72782266 -0.083728634
0.070609257 0.72818166 -0.083551683
0.071954206 0.7285313 -0.083365813
0.073300503 0.7288779 -0.08317592
0.074648909 0.72921371 -0.082971379
0.075997666 0.7295543 -0.082768314
0.077347107 0.729895 -0.082562275
0.078697242 0.73021996 -0.082341753
0.080047086 0.73055482 -0.08213111
0.034665257 0.7188229 -0.091650851
0.036205571 0.71820337 -0.091444582
0.037524238 0.71806759 -0.090739444
0.039020777 0.71756637 -0.090685576
0.040344164 0.71759105 -0.090153329
0.041805059 0.71717864 -0.09022525
0.04312896 0.71731848 -0.089805961
0.04444452 0.7175104 -0.089450911
0.045763079 0.71775961 -0.089154497
0.047078174 0.71805334 -0.088903405
0.048451584 0.71782929 -0.089178041
0.049760807 0.71816581 -0.088978961
0.05106559 0.7185359 -0.088821456
0.052308694 0.72003549 -0.087712042
0.053629123 0.72044706 -0.087593719
0.054947227 0.72085553 -0.087477095
0.056268647 0.72180909 -0.08686202
0.057602707 0.72277164 -0.086250968
0.058936074 0.72320062 -0.086152174
0.060269583 0.72362691 -0.086049698
0.061624907 0.72459316 -0.085443966
0.06296064 0.72502828 -0.085348256
0.06429898 0.72543126 -0.085215084
0.065636165 0.72584128 -0.085089572
0.06697429 0.72623092 -0.084943146
0.068313517 0.72661489 -0.084789075
0.069655225 0.72698522 -0.084620997
0.070997335 0.72735029 -0.084448412
0.072341874 0.72769499 -0.084254362
0.073688023 0.72802871 -0.084049299
0.075032853 0.72838032 -0.083866805
0.076379739 0.72871745 -0.083666421
0.077728003 0.72904569 -0.083454497
0.079075329 0.72939682 -0.083266236
0.036344048 0.71788406 -0.091883026
0.037877619 0.71731418 -0.091729112
0.039372817 0.71678519 -0.091645822
0.040702388 0.71676701 -0.091062479
0.042164817 0.71633828 -0.091107763
0.043484371 0.71644956 -0.090658657
0.044800505 0.7166217 -0.090286553
0.046119709 0.71686006 -0.08997158
0.047500148 0.71659195 -0.090205774
0.048817322 0.71690947 -0.089977466
0.050130937 0.71725285 -0.089780882
0.05143372 0.71763039 -0.089623749
0.052716505 0.7185877 -0.089016594
0.05402448 0.71899605 -0.08889772
0.055331036 0.71997041 -0.088308729
0.056658909 0.72094101 -0.087717876
0.057998616 0.72189504 -0.087103494
0.076762773 0.7278741 -0.084550798
0.078109063 0.72820312 -0.084343359
0.079455011 0.72854841 -0.084153622
0.080802768 0.72887635 -0.083941408
0.036697622 0.71719539 -0.092952088
0.038232043 0.71656674 -0.092724808
0.039733745 0.71601045 -0.092601091
0.041063987 0.71596223 -0.091988169
0.042523116 0.71551001 -0.091995925
0.043838508 0.71558779 -0.091522142
0.045160875 0.71574777 -0.091131531
0.046485126 0.71596408 -0.09079928
0.047866769 0.71568793 -0.091029055
0.049179778 0.71598804 -0.090783156
0.050493483 0.71633583 -0.090584643
0.051807709 0.71670914 -0.090424769
0.053090669 0.71768671 -0.089830853
0.054407176 0.71809661 -0.089718729
0.055720855 0.71907699 -0.089138903
0.057053752 0.72004682 -0.088547684
0.082501434 0.72726423 -0.085688345
0.083865143 0.72813129 -0.084918499
0.08521726 0.72844654 -0.084683336
0.086565129 0.72876245 -0.084455051
0.038586587 0.715832 -0.093735307
0.040094018 0.71526861 -0.093596399
0.041422274 0.71516639 -0.092919186
0.042879045 0.71469712 -0.092901364
0.044199746 0.71475482 -0.092410378
0.045601811 0.71438956 -0.092526101
0.046912074 0.71456897 -0.092156202
0.048232775 0.71480489 -0.091854751
0.049551655 0.71509427 -0.091602147
0.050868373 0.71543151 -0.091401912
0.05217791 0.71579945 -0.091241486
0.053489096 0.71619517 -0.091113009
0.054795213 0.71717918 -0.090524614
0.056116395 0.71817917 -0.089962587
0.057448432 0.7191636 -0.089387298
0.080197468 0.72629178 -0.086430445
0.081527218 0.72606659 -0.086737633
0.08288458 0.72637486 -0.086506553
0.084236488 0.72668099 -0.086275183
0.085585661 0.72700673 -0.086067677
0.086933121 0.72734576 -0.085869946
0.040286746 0.71493077 -0.093991496
0.04178137 0.71439147 -0.093874581
0.043125872 0.7143622 -0.093270779
0.044562917 0.71393728 -0.093310587
0.045960288 0.71355909 -0.093410552
0.047286879 0.7137118 -0.093017548
0.048644692 0.71340978 -0.093220256
0.049936432 0.71366239 -0.092947453
0.051255096 0.71396643 -0.09273117
0.052567046 0.71431816 -0.09255226
0.053879257 0.7146849 -0.092405729
0.055200033 0.71567702 -0.091804452
0.056514155 0.71725726 -0.09075623
0.057846762 0.71825629 -0.090192325
0.081909239 0.72516406 -0.087545805
0.083265126 0.72547239 -0.0873098
0.084617145 0.72578281 -0.087082267
0.085963503 0.72609746 -0.086865701
0.087305635 0.72643828 -0.086681448
0.042141773 0.71365356 -0.094873317
0.043491676 0.71357667 -0.094214343
0.044929691 0.71313596 -0.094224356
0.046333611 0.71274769 -0.094315074
0.047657438 0.71287799 -0.09389843
0.049005598 0.7125783 -0.094098046
0.050319184 0.7128154 -0.093821287
0.051632512 0.71309942 -0.093585879
0.052942421 0.71341324 -0.093382761
0.05426193 0.71377206 -0.093232661
0.055586714 0.71475857 -0.092608504
0.056920275 0.71691048 -0.091076992
0.083642811 0.72455996 -0.088112473
0.084992476 0.72432745 -0.088390164
0.086346395 0.7246418 -0.088165648
0.087676123 0.7249552 -0.08796218
0.089019008 0.72586483 -0.087280869
0.043858673 0.71280593 -0.095177583
0.045298137 0.71235847 -0.095169812
0.046705402 0.71195972 -0.095225848
0.048024971 0.71206933 -0.094798855
0.04938278 0.71178567 -0.095019728
0.050697546 0.71200061 -0.094712421
0.052007798 0.71226031 -0.094449028
0.053332955 0.71256095 -0.094240233
0.05465607 0.71288252 -0.094054013
0.055978905 0.71383077 -0.093394019
0.085369244 0.72338885 -0.089155681
0.086718418 0.72370923 -0.088940866
0.088056728 0.72403187 -0.088735446
0.089389168 0.72435719 -0.08853858
0.090732247 0.72531575 -0.087913439
0.045666732 0.71161026 -0.096147411
0.047015425 0.71162939 -0.09559948
0.048402529 0.711299 -0.095742613
0.049757734 0.71099746 -0.095931448
0.051073212 0.71118587 -0.095599003
0.05239721 0.71143198 -0.095329039
0.053718597 0.71171719 -0.095104359
0.055042997 0.71203023 -0.094902411
0.056369919 0.7129209 -0.094188921
0.085745901 0.7224223 -0.089895666
0.087094881 0.72274542 -0.089682125
0.088435829 0.72307837 -0.089484543
0.089766175 0.72342116 -0.089304067
0.091087796 0.72376984 -0.089130566
0.092413083 0.72416264 -0.089004934
0.047388248 0.71086705 -0.09656325
0.048769671 0.71054655 -0.096707672
0.050129246 0.71025926 -0.09690886
0.051457264 0.71041507 -0.096538462
0.052779183 0.7106303 -0.096229114
0.054104492 0.71089351 -0.095979497
0.055434868 0.71118039 -0.09574572
0.086121559 0.72149783 -0.090688303
0.087469354 0.72179574 -0.090444177
0.088822149 0.72157264 -0.090712726
0.090145022 0.72190577 -0.090524212
0.091467112 0.72283494 -0.089901641
0.092791021 0.72321618 -0.089760974
0.049118455 0.71021694 -0.097071961
0.050483711 0.70992339 -0.097257562
0.051831316 0.70967239 -0.097507134
0.053175088 0.70965999 -0.097487122
0.054504924 0.70988256 -0.097190969
0.055825599 0.71036679 -0.096633181
0.057152066 0.71065497 -0.096403971
0.089199379 0.72062337 -0.091473244
0.090529308 0.72095895 -0.091278873
0.091843307 0.72130728 -0.091110632
0.093151867 0.72168666 -0.090980962
0.050858542 0.70921785 -0.098273143
0.052211221 0.70897812 -0.098528042
0.053554509 0.70893991 -0.098479703
0.054886013 0.70912433 -0.098139651
0.056218896 0.70934284 -0.097836487
0.057532471 0.70983613 -0.097282298
0.086881496 0.71894038 -0.092583105
0.088226169 0.71927291 -0.092377894
0.089574091 0.71961337 -0.092180848
0.09091045 0.71996582 -0.091997407
0.092236497 0.72032225 -0.091827929
0.051226214 0.70857728 -0.099366382
0.052582316 0.70832056 -0.099588767
0.053934999 0.70828921 -0.099540733
0.055268798 0.70842528 -0.099148922
0.056592282 0.70860809 -0.098813489
0.057929344 0.70882672 -0.098501459
0.059266996 0.70982474 -0.097324364
0.089961097 0.71793246 -0.093261212
0.091305912 0.7183004 -0.093100056
0.052940585 0.70804554 -0.10000997
0.054295249 0.70786363 -0.10032425
0.055634454 0.70796841 -0.099887766
0.056977496 0.70792371 -0.099831939
0.058302708 0.70808452 -0.09946014
0.059637416 0.70851445 -0.09881144
0.087639026 0.71613419 -0.094225049
0.088983923 0.71649432 -0.094056629
0.09032473 0.71686816 -0.093903735
0.091665462 0.71725655 -0.093769819
0.092998207 0.71764988 -0.093645617
0.054662246 0.70727688 -0.10145503
0.056003861 0.70736903 -0.10100191
0.057351407 0.70728701 -0.10089581
0.058687318 0.70739818 -0.10047191
0.060016971 0.7075386 -0.10007627
0.061357446 0.70796984 -0.099418633
0.088004231 0.71505606 -0.094817974
0.089346565 0.71543962 -0.094678335
0.090684488 0.71582568 -0.094548173
0.09202195 0.71622795 -0.094437823
0.093351975 0.71666038 -0.094359159
0.056369673 0.70680565 -0.10216961
0.05772832 0.70671415 -0.10203119
0.0590657 0.70678163 -0.10155243
0.060393069 0.70687604 -0.10111187
0.061734799 0.70701855 -0.10070565
0.063069679 0.70719528 -0.10034069
0.0644053 0.70763606 -0.099690787
0.08838094 0.71330762 -0.095819145
0.089724682 0.71376169 -0.095763482
0.091058031 0.71421224 -0.0957091
0.092402823 0.71469265 -0.095683798
0.059432887 0.70623416 -0.10271254
0.060775381 0.70628661 -0.10221411
0.062151458 0.70608389 -0.1024438
0.063476957 0.70616412 -0.10199737
0.064783387 0.7066437 -0.10093447
0.066111498 0.7068153 -0.10057098
0.087417372 0.71175176 -0.096400701
0.088750385 0.71179974 -0.096515611
0.09008272 0.71231365 -0.096539006
0.091409542 0.71321094 -0.096382894
0.092744507 0.71374428 -0.096431538
0.094064645 0.71429294 -0.096494697
0.061140563 0.70576745 -0.10341001
0.062530562 0.70559764 -0.10361931
0.063867144 0.70562994 -0.1031131
0.065182492 0.70567548 -0.10265149
0.066503204 0.70575297 -0.10220727
0.06782563 0.70626539 -0.10115633
0.087792829 0.71033704 -0.097171895
0.089125916 0.71002775 -0.097553827
0.090450563 0.7105329 -0.09758389
0.091772139 0.71184969 -0.097259812
0.093092375 0.71245736 -0.097414404
0.062910758 0.7052418 -0.10493378
0.064237125 0.70519912 -0.10435362
0.065564029 0.70520031 -0.10382715
0.066876538 0.70520389 -0.10333502
0.068188287 0.70525372 -0.10288166
0.069506176 0.70533836 -0.10245329
0.082823656 0.70742655 -0.099157833
0.084161058 0.70770591 -0.098904468
0.085483618 0.7073763 -0.099280789
0.086820379 0.7077322 -0.099128142
0.088164307 0.70877522 -0.098447978
0.089495532 0.70921648 -0.098404244
0.090815678 0.70972967 -0.098449096
0.064604297 0.70490736 -0.10571124
0.065930396 0.70483017 -0.10511529
0.067246705 0.70478594 -0.10457272
0.068611249 0.7046693 -0.1047057
0.069885828 0.70459968 -0.10425697
0.071201861 0.70485306 -0.10313483
0.075199947 0.70526648 -0.10190194
0.076533332 0.70546114 -0.10155197
0.077867039 0.70567226 -0.10122387
0.079131179 0.70539474 -0.10156754
0.080472603 0.70560604 -0.10125884
0.081815854 0.70583385 -0.10096753
0.08316227 0.70607311 -0.10068187
0.084510535 0.70634025 -0.10043137
0.085853375 0.70667028 -0.10024735
0.08718697 0.70703083 -0.10009601
0.088531278 0.70800692 -0.099350236
0.089853942 0.70848298 -0.099349536
0.09116824 0.70900202 -0.099403374
0.068987988 0.70445704 -0.10599358
0.0702658 0.70434588 -0.10547817
0.076826155 0.70443702 -0.1033363
0.078168817 0.70458758 -0.10296156
0.079509385 0.70475781 -0.10262184
0.080784172 0.70455909 -0.10303592
0.082141198 0.70475513 -0.10272121
0.083533809 0.70543599 -0.10171453
0.084878914 0.70571691 -0.10148139
0.086211495 0.70603585 -0.1012788
0.087542169 0.70640028 -0.1011451
0.088864751 0.70681596 -0.1010626
0.090184011 0.70728731 -0.10105633
0.091519482 0.70834738 -0.10043726
0.075857572 0.7038523 -0.10494335
0.077195279 0.70391858 -0.10453548
0.078535601 0.70405036 -0.10413703
0.079876848 0.70421153 -0.10377075
0.081148788 0.70408696 -0.10417586
0.082502529 0.7042622 -0.10389103
0.083846822 0.7044903 -0.10360897
0.085187055 0.70475274 -0.10338478
0.086571105 0.70546114 -0.10241254
0.087900534 0.70583385 -0.10228338
0.089221783 0.70627296 -0.10223093
0.090534046 0.7067461 -0.10221101
0.077549562 0.70353347 -0.10582644
0.078892037 0.70361346 -0.10540745
0.080237351 0.7037468 -0.1050113
0.081496924 0.70367944 -0.10546901
0.082842931 0.70386553 -0.10511805
0.084202155 0.70407403 -0.10486151
0.085538492 0.70434827 -0.10460817
0.08691562 0.70498246 -0.10364911
0.088240802 0.7053535 -0.10350306
0.089562021 0.70578945 -0.1034523
0.081845269 0.70342058 -0.10680123
0.083193742 0.70356166 -0.10652351
0.084534712 0.70376098 -0.10622209
0.085874312 0.70401442 -0.10598648
0.083530262 0.70336545 -0.10795221
0.084869906 0.70356685 -0.1076803
0.072965935 0.76723415 -0.054444138
0.074250944 0.76694822 -0.053902514
0.075412989 0.76591212 -0.053129703
0.076709092 0.76570296 -0.052726626
0.066586263 0.7702384 -0.057333738
0.06787654 0.77016079 -0.057100289
0.069215424 0.76980329 -0.056805927
0.070527285 0.76965052 -0.05653248
0.071831837 0.76944095 -0.056185804
0.072837904 0.76748276 -0.054739613
0.07415165 0.76720244 -0.054241084
0.075321384 0.7661587 -0.053488288
0.07663054 0.76602632 -0.053099163
0.078057311 0.76686996 -0.053197224
0.079359032 0.76688349 -0.053096339
0.080663368 0.76688623 -0.053052265
0.081968993 0.76705599 -0.053285025
0.083460607 0.76893467 -0.054547928
0.084739141 0.76950568 -0.055179577
0.086046487 0.76976246 -0.055418566
0.087354273 0.76999646 -0.055653479
0.088648446 0.77000487 -0.055846628
0.089929193 0.76998752 -0.056073286
0.064644396 0.76870078 -0.056460977
0.065963559 0.76865435 -0.056198545
0.067622423 0.77032 -0.056790315
0.069031641 0.76988596 -0.056677803
0.070369706 0.76971143 -0.056444611
0.071699247 0.76949149 -0.05617433
0.073024347 0.76918238 -0.055803914
0.074056283 0.76726538 -0.054421328
0.075376272 0.76711941 -0.054016627
0.07669434 0.76705426 -0.053711522
0.078017578 0.76698971 -0.05337755
0.079344869 0.76699835 -0.053302661
0.08067248 0.76704979 -0.053414419
0.081990249 0.76725817 -0.05386243
0.083500601 0.76922053 -0.054906186
0.084820457 0.7695536 -0.0551918
0.086142786 0.76962388 -0.055316653
0.087458171 0.76971477 -0.055500351
0.088764198 0.76971889 -0.055703629
0.090063192 0.76975656 -0.055956122
0.091413885 0.77019906 -0.056309804
0.092714831 0.77027637 -0.056610215
0.094018489 0.77036905 -0.05691199
0.05899889 0.76765501 -0.057060014
0.060340166 0.76757121 -0.056811314
0.06169796 0.76748222 -0.056602992
0.063059792 0.76738697 -0.056415938
0.064559661 0.76817894 -0.056290586
0.065909319 0.76808268 -0.056104641
0.067519568 0.76988715 -0.056515105
0.068855263 0.76979476 -0.056310393
0.070209421 0.76965851 -0.056187909
0.071576022 0.76941639 -0.056031153
0.072910748 0.76927638 -0.055806823
0.074236535 0.7691353 -0.055536922
0.075564377 0.76898628 -0.055189922
0.076658376 0.7670548 -0.054077599
0.077995837 0.76714849 -0.054285806
0.079331413 0.76723927 -0.054429479
0.080884106 0.76903152 -0.05473588
0.082224034 0.76902246 -0.054684795
0.083556257 0.76918119 -0.054922156
0.084894478 0.76934642 -0.055072073
0.086233743 0.76941317 -0.055190813
0.087565891 0.76947993 -0.055373032
0.088900164 0.7695899 -0.05558053
0.090220988 0.76966149 -0.055822633
0.091539949 0.76974982 -0.056112505
0.092857219 0.76985395 -0.056406833
0.094178542 0.76997536 -0.056714226
0.095481284 0.77009726 -0.057048738
0.096780434 0.77022684 -0.057405755
0.097886629 0.76834321 -0.057207782
0.099069208 0.7675373 -0.057381455
0.052242599 0.76760077 -0.058359113
0.053590294 0.76745528 -0.058016166
0.05495058 0.76732332 -0.05773567
0.056289896 0.76721835 -0.057441495
0.057648521 0.76710707 -0.057216395
0.058994737 0.76701289 -0.05696601
0.060351793 0.76692075 -0.056772683
0.061705764 0.76683736 -0.056584302
0.063058965 0.76676142 -0.056422051
0.064524435 0.76755387 -0.056159783
0.066075139 0.76941359 -0.056180127
0.067422464 0.76933938 -0.056040287
0.068770677 0.76926088 -0.055879809
0.07012219 0.76920253 -0.055794284
0.071471758 0.7691381 -0.055689208
0.072822213 0.76907712 -0.055620573
0.074162893 0.76902461 -0.055431224
0.075504206 0.76899672 -0.055242434
0.076847352 0.76898646 -0.055033162
0.078196295 0.7689926 -0.054852985
0.079555497 0.76892495 -0.054809317
0.081086956 0.7709713 -0.056662094
0.082423411 0.77102125 -0.056616254
0.083772019 0.77113998 -0.056432329
0.085126236 0.77117145 -0.056235369
0.086480498 0.77119553 -0.056144085
0.087814376 0.77124298 -0.056347314
0.089137547 0.7712844 -0.056623038
0.090328485 0.76913935 -0.055560362
0.09166339 0.76926357 -0.055858422
0.093001261 0.76938552 -0.056114666
0.094327368 0.76950878 -0.056438066
0.095630772 0.76962215 -0.056848738
0.096780904 0.76783633 -0.056778844
0.098091446 0.76796287 -0.05710401
0.099303842 0.76718873 -0.057304673
0.10039449 0.76558191 -0.05765105
0.10171372 0.76571161 -0.057898536
0.050913405 0.76707411 -0.058523934
0.052275028 0.76692021 -0.058210641
0.053627461 0.7667734 -0.057890773
0.054989718 0.76665199 -0.057654612
0.056342218 0.76652801 -0.057392113
0.057792973 0.76734674 -0.057144493
0.059149519 0.76722449 -0.056898579
0.060504932 0.76711196 -0.056684308
0.061859563 0.76701659 -0.056511525
0.063212879 0.76691979 -0.056341216
0.064721934 0.76877069 -0.056172907
0.066073924 0.76866251 -0.055968739
0.067421176 0.76858985 -0.055814032
0.068772957 0.76849002 -0.055632085
0.070118435 0.76844281 -0.055502273
0.071462229 0.76839983 -0.055359665
0.072796881 0.76845026 -0.055255324
0.074133135 0.7685653 -0.055165567
0.075473711 0.76868492 -0.055052124
0.076856375 0.76844007 -0.054829363
0.07823579 0.76818055 -0.054762468
0.079757266 0.77099735 -0.056826908
0.081112511 0.77099484 -0.056604683
0.082595624 0.77287388 -0.059323944
0.083938695 0.77308124 -0.05911107
0.085305743 0.77320182 -0.058480557
0.089259267 0.77066094 -0.05593086
0.090601087 0.77079332 -0.056235652
0.091702364 0.76853728 -0.055757996
0.09304627 0.76865345 -0.055979457
0.094391733 0.76883715 -0.05629741
0.095731795 0.76897728 -0.056582492
0.096822791 0.76717699 -0.056801472
0.098157071 0.76730412 -0.057042349
0.099363901 0.76651353 -0.057309479
0.10043845 0.76491684 -0.057794496
0.10177647 0.76503664 -0.057989653
0.10285645 0.76351666 -0.05859562
0.10420114 0.76359266 -0.058725797
0.10557107 0.76369786 -0.058861937
0.049322296 0.76270175 -0.058674369
0.050991796 0.76634568 -0.058418505
0.052352816 0.76619744 -0.058126487
0.053715367 0.76604789 -0.057840027
0.055074733 0.76593137 -0.057625275
0.056436624 0.76580745 -0.057406794
0.057877209 0.76660031 -0.057100967
0.059241083 0.76646775 -0.056890931
0.060593244 0.76637602 -0.056741279
0.061943434 0.76628172 -0.056596737
0.063422434 0.76804501 -0.056215763
0.064771928 0.76793468 -0.056043956
0.066222891 0.77011454 -0.056234162
0.067585528 0.76994795 -0.055956423
0.068904437 0.77018118 -0.05614081
0.070259325 0.77012783 -0.055977359
0.071586616 0.77048457 -0.056371711
0.072938889 0.77066523 -0.05658273
0.074302778 0.77091658 -0.05708947
0.075663142 0.77095819 -0.057080094
0.07702563 0.77097982 -0.056976479
0.078389913 0.77103287 -0.056969129
0.079782732 0.77066898 -0.056073353
0.081178918 0.77005482 -0.055270873
0.091997832 0.76995188 -0.055955969
0.093058899 0.76792061 -0.056019593
0.094405398 0.76806855 -0.056253854
0.095754243 0.76821256 -0.056501545
0.097107463 0.76837933 -0.056792244
0.098183274 0.76655805 -0.057059769
0.099389717 0.76577157 -0.057376739
0.10073023 0.76590854 -0.057601325
0.10180316 0.76434523 -0.05816162
0.10287225 0.76284349 -0.058808096
0.10422338 0.76292384 -0.058933258
0.10556667 0.76299602 -0.059053816
0.10691728 0.76308 -0.059181314
0.048088986 0.76205468 -0.058881287
0.04943924 0.76196456 -0.058724422
0.050787125 0.76189625 -0.058608029
0.052316785 0.76357442 -0.058201466
0.053822167 0.7653262 -0.057862509
0.055261068 0.76612031 -0.057559066
0.05663475 0.76596916 -0.057333902
0.057993714 0.7658484 -0.057156306
0.059350599 0.76574552 -0.057008274
0.060824424 0.76746452 -0.056572888
0.062180154 0.76731235 -0.056371517
0.063513689 0.76720947 -0.056218375
0.095743366 0.76741493 -0.056533176
0.097103618 0.76755285 -0.05676806
0.098482609 0.76770991 -0.057021823
0.099532008 0.76588857 -0.057367589
0.10073098 0.765154 -0.057735287
0.10180228 0.76363808 -0.058366001
0.10287596 0.76217884 -0.059073456
0.10421528 0.76224506 -0.059177525
0.10555752 0.76231277 -0.059282213
0.049560893 0.76123953 -0.058818255
0.050911166 0.76118314 -0.058729921
0.052448496 0.76284641 -0.058300506
0.053972151 0.76454687 -0.057880346
0.055400368 0.76535565 -0.057587836
0.056770589 0.76522428 -0.057415266
0.058119211 0.76512766 -0.057285197
0.099517934 0.76509106 -0.057510305
0.10071471 0.76440555 -0.057919428
0.10204282 0.76451492 -0.058101818
0.10311598 0.76302099 -0.058741681
0.10444529 0.76309681 -0.058862705
0.10577878 0.76316953 -0.05897988
0.10686664 0.76168311 -0.059621654
0.10820429 0.76174349 -0.059716675
0.048500918 0.76236147 -0.05876885
0.049867097 0.76225907 -0.058623731
0.05124316 0.76216477 -0.058500476
0.052757222 0.76390529 -0.058092792
0.10440365 0.76239067 -0.059099551
0.10550374 0.76095831 -0.059802994
0.10683295 0.76100105 -0.059871994
0.1081549 0.76103973 -0.059943601
0.10841589 0.75519419 -0.062774263
0.1094458 0.75379419 -0.063612714
0.11076698 0.75379622 -0.06360627
0.031408478 0.7484659 -0.063636206
0.03269973 0.74843121 -0.063622788
0.033994745 0.74840772 -0.063613869
0.035288695 0.74839181 -0.063606799
0.036716226 0.7497766 -0.06290172
0.038024012 0.74976915 -0.062893413
0.10546999 0.76028073 -0.060070757
0.10679018 0.7603178 -0.060135476
0.10811712 0.7603581 -0.060196158
0.10841417 0.75459605 -0.063112758
0.10944717 0.75320584 -0.063951395
0.11076941 0.75320089 -0.063937761
0.11208964 0.75320894 -0.063948311
0.02758576 0.74932748 -0.063480951
0.028893089 0.74926066 -0.063397437
0.030125255 0.74777758 -0.063920088
0.031424172 0.74776053 -0.063922517
0.032725327 0.747747 -0.06392391
0.03402682 0.74773455 -0.063922629
0.035326701 0.74773407 -0.063935362
0.036627516 0.74773568 -0.06394612
0.03793034 0.74774259 -0.063966922
0.039230254 0.74775952 -0.06399823
0.10708311 0.75401044 -0.063473873
0.10840499 0.753995 -0.063448437
0.10913999 0.75125813 -0.065197326
0.11046107 0.75125366 -0.065180659
0.11162808 0.75057364 -0.065602876
0.11292966 0.75059295 -0.065612465
0.02490031 0.74728614 -0.06453418
0.026202887 0.74719429 -0.064422131
0.027507897 0.74710798 -0.064314723
0.028815523 0.74706221 -0.064257644
0.030124318 0.74703884 -0.064228579
0.031433549 0.74703264 -0.064221308
0.032742765 0.74703944 -0.064231694
0.034051679 0.74705023 -0.064247996
0.035300598 0.74639767 -0.064653069
0.036602292 0.74641907 -0.064690307
0.037904266 0.74644375 -0.064732686
0.039204773 0.74647146 -0.064780377
0.041634373 0.74525434 -0.065737583
0.10424367 0.74667388 -0.068107001
0.10554612 0.74669784 -0.068153426
0.10736378 0.74865383 -0.066875912
0.10867564 0.74866223 -0.0668789
0.10998117 0.74869686 -0.066920407
0.11112792 0.74804473 -0.067366488
0.11244618 0.74805272 -0.067356735
0.11376055 0.74806035 -0.067345522
0.018416686 0.74372727 -0.067008622
0.019691769 0.74364251 -0.06692826
0.020966988 0.7435714 -0.066860363
0.022243112 0.74350077 -0.066796795
0.023523422 0.7434451 -0.066742331
0.024802109 0.74338126 -0.066691972
0.02615037 0.74579054 -0.065139234
0.027484279 0.74636805 -0.064689636
0.028799277 0.74632305 -0.064626612
0.030115781 0.74630207 -0.064581633
0.031433895 0.74630129 -0.064563192
0.032701071 0.74566728 -0.064958036
0.034012444 0.74568939 -0.064980328
0.035323754 0.74573308 -0.065029897
0.036634143 0.74576473 -0.065068081
0.037806574 0.74451256 -0.065933578
0.039102007 0.74455154 -0.06599652
0.040396515 0.74459982 -0.066072457
0.041689906 0.74464518 -0.066145845
0.042808268 0.74344116 -0.067070253
0.10427746 0.74608797 -0.06845551
0.10558277 0.74611664 -0.0685248
0.10722236 0.74742895 -0.067692257
0.1085274 0.74744511 -0.067707866
0.10949554 0.74620128 -0.068628535
0.11080029 0.74622887 -0.06864164
0.11209622 0.74625224 -0.068677388
0.1134165 0.7462576 -0.068697795
0.014485755 0.74327099 -0.067753792
0.01579991 0.74259013 -0.06801115
0.017078185 0.74249983 -0.067923054
0.018330906 0.74299455 -0.067470759
0.019614175 0.74291682 -0.067392327
0.020899765 0.74285078 -0.067325212
0.02218488 0.74278551 -0.067260504
0.02347192 0.74272972 -0.067200817
0.024761356 0.74268132 -0.067153476
0.026116502 0.74505872 -0.065550111
0.027434457 0.74499953 -0.065466188
0.028749693 0.74496669 -0.065416902
0.030063156 0.74494219 -0.065378278
0.031382192 0.74495083 -0.065361477
0.032609381 0.7437371 -0.066195749
0.033916466 0.7437523 -0.066209778
0.035223573 0.74377662 -0.066236883
0.036418047 0.7426064 -0.067127153
0.037712887 0.74263597 -0.067177244
0.039004046 0.74267733 -0.067244768
0.040291525 0.74271989 -0.06731876
0.041578453 0.74276757 -0.067397013
0.04286465 0.74282032 -0.067479581
0.044058461 0.74226034 -0.067980021
0.096851096 0.74028981 -0.072584867
0.098098055 0.74032795 -0.072696172
0.10265044 0.74430853 -0.069630012
0.10394868 0.74432606 -0.069693871
0.10561369 0.74552774 -0.068888322
0.10691994 0.74555266 -0.068939865
0.10853955 0.74687362 -0.068090595
0.10952333 0.74562317 -0.069012173
0.11082256 0.74565446 -0.06906499
0.11212406 0.745673 -0.069088414
0.11344301 0.74567556 -0.069100671
0.11509502 0.74694449 -0.068164662
0.0054069851 0.74330056 -0.069046736
0.0067376872 0.74256462 -0.069240399
0.0080185337 0.74245256 -0.069124095
0.0092493165 0.74293673 -0.068662673
0.010530403 0.74282336 -0.068542615
0.011812766 0.74271733 -0.068429492
0.013097502 0.74261802 -0.068325877
0.01438294 0.74252754 -0.068230376
0.015706144 0.74187249 -0.068517923
0.016989525 0.74178576 -0.06842953
0.01824557 0.74226934 -0.067952462
0.019536575 0.74220103 -0.067877673
0.020829367 0.74213839 -0.067808256
0.022123352 0.74207777 -0.067739993
0.023420002 0.74203277 -0.067688696
0.024732731 0.74314618 -0.066821814
0.026044758 0.7431156 -0.06677638
0.027317587 0.74193549 -0.067574248
0.02861852 0.74191445 -0.067548148
0.029919587 0.74189574 -0.067524515
0.031289913 0.74305022 -0.066658273
0.032522503 0.74189287 -0.067518964
0.033824459 0.74190456 -0.067532562
0.035126247 0.74192941 -0.067562662
0.036427759 0.74195427 -0.067592733
0.037670318 0.74139941 -0.068063244
0.038965207 0.74142641 -0.068103366
0.040257648 0.74146724 -0.06816072
0.041547529 0.74151409 -0.068228684
0.042833418 0.74157059 -0.06831412
0.044119511 0.74163043 -0.068403132
0.095890515 0.73998493 -0.072752699
0.096935771 0.73965323 -0.07322298
0.098182298 0.73970735 -0.073302306
0.10083673 0.74209708 -0.071320571
0.1021418 0.7421062 -0.071397454
0.1039795 0.74376917 -0.070136711
0.1052869 0.74377745 -0.070184797
0.10693409 0.74498904 -0.069334432
0.10823866 0.74501622 -0.069381379
0.1095367 0.74505609 -0.069438726
0.11084541 0.74507236 -0.069457911
0.11215438 0.74508965 -0.069499955
0.11346501 0.74509966 -0.069522008
0.11510075 0.74636859 -0.068582915
0.11656678 0.74702662 -0.068147644
0.0040020235 0.74263865 -0.069628976
0.0052816845 0.74250251 -0.069488727
0.0066192597 0.74180001 -0.069712281
0.0079013137 0.74169427 -0.069601074
0.0091317343 0.74216479 -0.069128186
0.010416565 0.74205893 -0.069015004
0.011704418 0.74197006 -0.068919204
0.012992726 0.74188006 -0.068821505
0.014282828 0.74179614 -0.068728514
0.01561201 0.74116123 -0.069035158
0.016899686 0.74107766 -0.068944231
0.018160572 0.74155641 -0.068458006
0.019481622 0.74093944 -0.068790928
0.020776041 0.74088424 -0.068728589
0.022071762 0.7408337 -0.068670467
0.023369655 0.7407949 -0.068624161
0.024668423 0.74074763 -0.068567358
0.025968745 0.7407223 -0.068536386
0.027269429 0.74070066 -0.068507649
0.028571021 0.7406925 -0.068495788
0.029872147 0.74068242 -0.068479359
0.031173157 0.74067265 -0.06846422
0.032474138 0.74066627 -0.068452954
0.03377562 0.74067509 -0.068462029
0.035077211 0.7406925 -0.068482429
0.036379185 0.7407161 -0.068509609
0.037680972 0.74074346 -0.068540245
0.03898203 0.74076986 -0.068570547
0.040147655 0.73966235 -0.06948483
0.041434553 0.73970461 -0.06954138
0.042879771 0.7409122 -0.068745539
0.044174656 0.74098498 -0.068839006
0.045467567 0.7410562 -0.068933226
0.046758842 0.7411316 -0.069034867
0.086660855 0.74097049 -0.070601523
0.087948084 0.74103892 -0.070715763
0.089239091 0.74111193 -0.070878915
0.090530284 0.74118161 -0.071033999
0.09182246 0.74123853 -0.071162105
0.093118183 0.74129599 -0.071271732
0.094416223 0.74133152 -0.07138148
0.095509969 0.740915 -0.07183557
0.095966838 0.73935431 -0.073387675
