# .PCD v0.7 - Point Cloud Data file format
VERSION 0.7
FIELDS x y z rgb
SIZE 4 4 4 4
TYPE F F F F
COUNT 1 1 1 1
WIDTH 986
HEIGHT 1
VIEWPOINT 0 0 0 1 0 0 0
POINTS 986
DATA ascii
0.0095381327 0.68000001 0.040537067 2.3509886e-38
0.010761959 0.68199998 0.040656291 2.3509886e-38
0.011957732 0.68199998 0.040656291 2.3509886e-38
0.013172794 0.68300003 0.040715907 2.3509886e-38
0.01439136 0.68400002 0.040775519 2.3509886e-38
0.015636226 0.68599999 0.040894743 2.3509886e-38
0.016839013 0.68599999 0.040894743 2.3509886e-38
0.018068098 0.68699998 0.040954359 2.3509886e-38
0.019272638 0.68699998 0.040954359 2.3509886e-38
0.020596405 0.69099998 0.041192811 2.3509886e-38
0.021807959 0.69099998 0.041192811 2.3509886e-38
0.02308614 0.69300002 0.041312039 2.3509886e-38
0.024336265 0.69400001 0.041371655 2.3509886e-38
0.025553079 0.69400001 0.041371655 2.3509886e-38
0.026847038 0.69599998 0.041490879 2.3509886e-38
0.028107686 0.69700003 0.041550495 2.3509886e-38
0.02932976 0.69700003 0.041550495 2.3509886e-38
0.030551834 0.69700003 0.041550495 2.3509886e-38
0.031819493 0.69800001 0.041610107 2.3509886e-38
0.033043321 0.69800001 0.041610107 2.3509886e-38
0.034414422 0.70099998 0.041788943 2.3509886e-38
-0.064571753 0.68199998 0.039460517 2.3509886e-38
-0.063375987 0.68199998 0.039460517 2.3509886e-38
-0.061997864 0.68000001 0.039344799 2.3509886e-38
-0.0608056 0.68000001 0.039344799 2.3509886e-38
-0.059525665 0.67900002 0.039286941 2.3509886e-38
-0.058249239 0.67799997 0.039229076 2.3509886e-38
-0.056892153 0.676 0.039113361 2.3509886e-38
-0.055542093 0.67400002 0.038997639 2.3509886e-38
-0.054118387 0.671 0.038824059 2.3509886e-38
-0.052941896 0.671 0.038824059 2.3509886e-38
-0.051688269 0.67000002 0.038766202 2.3509886e-38
-0.050287351 0.667 0.038592618 2.3509886e-38
-0.049117878 0.667 0.038592618 2.3509886e-38
-0.047948405 0.667 0.038592618 2.3509886e-38
-0.046708796 0.66600001 0.03853476 2.3509886e-38
-0.045404319 0.66399997 0.038419038 2.3509886e-38
-0.044173479 0.66299999 0.038361177 2.3509886e-38
-0.042946145 0.662 0.038303319 2.3509886e-38
-0.041785441 0.662 0.038303319 2.3509886e-38
-0.04062473 0.662 0.038303319 2.3509886e-38
-0.039464023 0.662 0.038303319 2.3509886e-38
-0.038245458 0.66100001 0.038245458 2.3509886e-38
-0.037086505 0.66100001 0.038245458 2.3509886e-38
-0.035927553 0.66100001 0.038245458 2.3509886e-38
-0.034610797 0.65799999 0.038071878 2.3509886e-38
-0.033457108 0.65799999 0.038071878 2.3509886e-38
-0.032352503 0.65899998 0.038129739 2.3509886e-38
-0.031291738 0.66100001 0.038245458 2.3509886e-38
-0.030132787 0.66100001 0.038245458 2.3509886e-38
-0.029017664 0.662 0.038303319 2.3509886e-38
-0.027856959 0.662 0.038303319 2.3509886e-38
-0.026857559 0.66600001 0.03853476 2.3509886e-38
-0.025612691 0.66399997 0.038419038 2.3509886e-38
-0.02422756 0.65799999 0.038071878 2.3509886e-38
-0.023073865 0.65799999 0.038071878 2.3509886e-38
-0.021920172 0.65799999 0.038071878 2.3509886e-38
-0.02076648 0.65799999 0.038071878 2.3509886e-38
-0.019612785 0.65799999 0.038071878 2.3509886e-38
-0.018459093 0.65799999 0.038071878 2.3509886e-38
-0.017331699 0.65899998 0.038129739 2.3509886e-38
-0.016176252 0.65899998 0.038129739 2.3509886e-38
-0.015066394 0.66100001 0.038245458 2.3509886e-38
-0.01390744 0.66100001 0.038245458 2.3509886e-38
-0.012767773 0.662 0.038303319 2.3509886e-38
-0.0116246 0.66299999 0.038361177 2.3509886e-38
-0.010477919 0.66399997 0.038419038 2.3509886e-38
-0.0093137063 0.66399997 0.038419038 2.3509886e-38
-0.0081494926 0.66399997 0.038419038 2.3509886e-38
-0.0070063197 0.66600001 0.03853476 2.3509886e-38
-0.0058473665 0.667 0.038592618 2.3509886e-38
-0.0046778931 0.667 0.038592618 2.3509886e-38
-0.0035084197 0.667 0.038592618 2.3509886e-38
-0.0023424532 0.66799998 0.038650475 2.3509886e-38
-0.0011747333 0.67000002 0.038766202 2.3509886e-38
0 0.671 0.038824059 2.3509886e-38
0.0011764866 0.671 0.038824059 2.3509886e-38
0.0023564799 0.67199999 0.03888192 2.3509886e-38
0.0035505001 0.67500001 0.039055496 2.3509886e-38
0.0047550397 0.67799997 0.039229076 2.3509886e-38
0.0059437994 0.67799997 0.039229076 2.3509886e-38
0.0071430802 0.67900002 0.039286941 2.3509886e-38
0.0083458666 0.68000001 0.039344799 2.3509886e-38
0.0095381327 0.68000001 0.039344799 2.3509886e-38
0.010761959 0.68199998 0.039460517 2.3509886e-38
0.011957732 0.68199998 0.039460517 2.3509886e-38
0.013172794 0.68300003 0.039518382 2.3509886e-38
0.01439136 0.68400002 0.03957624 2.3509886e-38
0.015636226 0.68599999 0.039691959 2.3509886e-38
0.016839013 0.68599999 0.039691959 2.3509886e-38
0.018068098 0.68699998 0.039749816 2.3509886e-38
0.019300694 0.68800002 0.039807681 2.3509886e-38
0.020596405 0.69099998 0.039981257 2.3509886e-38
0.021807959 0.69099998 0.039981257 2.3509886e-38
0.02308614 0.69300002 0.04009698 2.3509886e-38
0.024336265 0.69400001 0.040154841 2.3509886e-38
0.025626717 0.69599998 0.040270556 2.3509886e-38
0.026847038 0.69599998 0.040270556 2.3509886e-38
0.028107686 0.69700003 0.040328421 2.3509886e-38
0.02932976 0.69700003 0.040328421 2.3509886e-38
0.030551834 0.69700003 0.040328421 2.3509886e-38
0.031819493 0.69800001 0.040386278 2.3509886e-38
0.033043321 0.69800001 0.040386278 2.3509886e-38
-0.064571753 0.68199998 0.038264744 2.3509886e-38
-0.063375987 0.68199998 0.038264744 2.3509886e-38
-0.062180214 0.68199998 0.038264744 2.3509886e-38
-0.0608056 0.68000001 0.038152531 2.3509886e-38
-0.059613332 0.68000001 0.038152531 2.3509886e-38
-0.058335152 0.67900002 0.038096428 2.3509886e-38
-0.056892153 0.676 0.037928104 2.3509886e-38
-0.055294871 0.671 0.037647571 2.3509886e-38
-0.054118387 0.671 0.037647571 2.3509886e-38
-0.052863002 0.67000002 0.037591465 2.3509886e-38
-0.051688269 0.67000002 0.037591465 2.3509886e-38
-0.050287351 0.667 0.037423145 2.3509886e-38
-0.049117878 0.667 0.037423145 2.3509886e-38
-0.047876518 0.66600001 0.037367038 2.3509886e-38
-0.046568532 0.66399997 0.037254825 2.3509886e-38
-0.045404319 0.66399997 0.037254825 2.3509886e-38
-0.044173479 0.66299999 0.037198719 2.3509886e-38
-0.042946145 0.662 0.037142612 2.3509886e-38
-0.04172232 0.66100001 0.037086505 2.3509886e-38
-0.040563367 0.66100001 0.037086505 2.3509886e-38
-0.039404415 0.66100001 0.037086505 2.3509886e-38
-0.038071878 0.65799999 0.036918186 2.3509886e-38
-0.036918186 0.65799999 0.036918186 2.3509886e-38
-0.035710141 0.65700001 0.036862079 2.3509886e-38
-0.034558199 0.65700001 0.036862079 2.3509886e-38
-0.033304565 0.65499997 0.036749862 2.3509886e-38
-0.032156132 0.65499997 0.036749862 2.3509886e-38
-0.03110238 0.65700001 0.036862079 2.3509886e-38
-0.029859263 0.65499997 0.036749862 2.3509886e-38
-0.028710833 0.65499997 0.036749862 2.3509886e-38
-0.027562398 0.65499997 0.036749862 2.3509886e-38
-0.026413966 0.65499997 0.036749862 2.3509886e-38
-0.025265532 0.65499997 0.036749862 2.3509886e-38
-0.024117097 0.65499997 0.036749862 2.3509886e-38
-0.023038799 0.65700001 0.036862079 2.3509886e-38
-0.021886859 0.65700001 0.036862079 2.3509886e-38
-0.020734919 0.65700001 0.036862079 2.3509886e-38
-0.019582979 0.65700001 0.036862079 2.3509886e-38
-0.01843104 0.65700001 0.036862079 2.3509886e-38
-0.017305398 0.65799999 0.036918186 2.3509886e-38
-0.016176252 0.65899998 0.036974292 2.3509886e-38
-0.015020805 0.65899998 0.036974292 2.3509886e-38
-0.01390744 0.66100001 0.037086505 2.3509886e-38
-0.012748486 0.66100001 0.037086505 2.3509886e-38
-0.0116246 0.66299999 0.037198719 2.3509886e-38
-0.01046214 0.66299999 0.037198719 2.3509886e-38
-0.0093137063 0.66399997 0.037254825 2.3509886e-38
-0.0081494926 0.66399997 0.037254825 2.3509886e-38
-0.0070063197 0.66600001 0.037367038 2.3509886e-38
-0.0058473665 0.667 0.037423145 2.3509886e-38
-0.0046778931 0.667 0.037423145 2.3509886e-38
-0.0035084197 0.667 0.037423145 2.3509886e-38
-0.0023494666 0.67000002 0.037591465 2.3509886e-38
-0.0011747333 0.67000002 0.037591465 2.3509886e-38
0 0.671 0.037647571 2.3509886e-38
0.0011764866 0.671 0.037647571 2.3509886e-38
0.0023564799 0.67199999 0.037703678 2.3509886e-38
0.0035557596 0.676 0.037928104 2.3509886e-38
0.0047550397 0.67799997 0.038040318 2.3509886e-38
0.0059437994 0.67799997 0.038040318 2.3509886e-38
0.0071430802 0.67900002 0.038096428 2.3509886e-38
0.0083458666 0.68000001 0.038152531 2.3509886e-38
0.009566186 0.68199998 0.038264744 2.3509886e-38
0.010761959 0.68199998 0.038264744 2.3509886e-38
0.011975267 0.68300003 0.038320854 2.3509886e-38
0.01319208 0.68400002 0.038376961 2.3509886e-38
0.01443344 0.68599999 0.03848917 2.3509886e-38
0.015636226 0.68599999 0.03848917 2.3509886e-38
0.01686356 0.68699998 0.038545277 2.3509886e-38
0.0180944 0.68800002 0.038601387 2.3509886e-38
0.019356798 0.69 0.038713597 2.3509886e-38
0.020656019 0.69300002 0.03888192 2.3509886e-38
0.021871079 0.69300002 0.03888192 2.3509886e-38
0.023119451 0.69400001 0.038938027 2.3509886e-38
0.024336265 0.69400001 0.038938027 2.3509886e-38
0.025626717 0.69599998 0.039050236 2.3509886e-38
0.026885614 0.69700003 0.039106347 2.3509886e-38
0.028107686 0.69700003 0.039106347 2.3509886e-38
0.02932976 0.69700003 0.039106347 2.3509886e-38
0.030595668 0.69800001 0.039162453 2.3509886e-38
0.031910665 0.69999999 0.039274666 2.3509886e-38
0.033137999 0.69999999 0.039274666 2.3509886e-38
-0.063375987 0.68199998 0.037068974 2.3509886e-38
-0.062180214 0.68199998 0.037068974 2.3509886e-38
-0.060984433 0.68199998 0.037068974 2.3509886e-38
-0.059613332 0.68000001 0.036960267 2.3509886e-38
-0.058249239 0.67799997 0.036851559 2.3509886e-38
-0.056723841 0.67400002 0.036634147 2.3509886e-38
-0.055294871 0.671 0.036471087 2.3509886e-38
-0.054118387 0.671 0.036471087 2.3509886e-38
-0.052863002 0.67000002 0.036416732 2.3509886e-38
-0.051688269 0.67000002 0.036416732 2.3509886e-38
-0.050362743 0.66799998 0.036308024 2.3509886e-38
-0.049117878 0.667 0.036253672 2.3509886e-38
-0.047876518 0.66600001 0.03619932 2.3509886e-38
-0.046568532 0.66399997 0.036090612 2.3509886e-38
-0.045404319 0.66399997 0.036090612 2.3509886e-38
-0.044173479 0.66299999 0.036036257 2.3509886e-38
-0.042946145 0.662 0.035981905 2.3509886e-38
-0.04172232 0.66100001 0.035927553 2.3509886e-38
-0.040563367 0.66100001 0.035927553 2.3509886e-38
-0.039285187 0.65899998 0.035818845 2.3509886e-38
-0.038014017 0.65700001 0.035710141 2.3509886e-38
-0.036862079 0.65700001 0.035710141 2.3509886e-38
-0.035710141 0.65700001 0.035710141 2.3509886e-38
-0.034452997 0.65499997 0.03560143 2.3509886e-38
-0.033253718 0.65399998 0.035547078 2.3509886e-38
-0.03210704 0.65399998 0.035547078 2.3509886e-38
-0.030960357 0.65399998 0.035547078 2.3509886e-38
-0.029813679 0.65399998 0.035547078 2.3509886e-38
-0.028623167 0.653 0.035492726 2.3509886e-38
-0.027478239 0.653 0.035492726 2.3509886e-38
-0.026333313 0.653 0.035492726 2.3509886e-38
-0.025226958 0.65399998 0.035547078 2.3509886e-38
-0.024080278 0.65399998 0.035547078 2.3509886e-38
-0.022968665 0.65499997 0.03560143 2.3509886e-38
-0.021886859 0.65700001 0.035710141 2.3509886e-38
-0.020671798 0.65499997 0.03560143 2.3509886e-38
-0.019523365 0.65499997 0.03560143 2.3509886e-38
-0.01843104 0.65700001 0.035710141 2.3509886e-38
-0.0172791 0.65700001 0.035710141 2.3509886e-38
-0.016151706 0.65799999 0.035764489 2.3509886e-38
-0.015020805 0.65899998 0.035818845 2.3509886e-38
-0.01390744 0.66100001 0.035927553 2.3509886e-38
-0.012748486 0.66100001 0.035927553 2.3509886e-38
-0.011607066 0.662 0.035981905 2.3509886e-38
-0.01046214 0.66299999 0.036036257 2.3509886e-38
-0.0093137063 0.66399997 0.036090612 2.3509886e-38
-0.0081740404 0.66600001 0.03619932 2.3509886e-38
-0.0070063197 0.66600001 0.03619932 2.3509886e-38
-0.0058473665 0.667 0.036253672 2.3509886e-38
-0.0046778931 0.667 0.036253672 2.3509886e-38
-0.0035136798 0.66799998 0.036308024 2.3509886e-38
-0.0023494666 0.67000002 0.036416732 2.3509886e-38
-0.0011764866 0.671 0.036471087 2.3509886e-38
0 0.671 0.036471087 2.3509886e-38
0.0011764866 0.671 0.036471087 2.3509886e-38
0.0023669999 0.67500001 0.036688499 2.3509886e-38
0.0035557596 0.676 0.036742851 2.3509886e-38
0.0047550397 0.67799997 0.036851559 2.3509886e-38
0.0059437994 0.67799997 0.036851559 2.3509886e-38
0.0071535995 0.68000001 0.036960267 2.3509886e-38
0.0083458666 0.68000001 0.036960267 2.3509886e-38
0.009566186 0.68199998 0.037068974 2.3509886e-38
0.010761959 0.68199998 0.037068974 2.3509886e-38
0.011975267 0.68300003 0.037123326 2.3509886e-38
0.01319208 0.68400002 0.037177678 2.3509886e-38
0.01443344 0.68599999 0.037286382 2.3509886e-38
0.015659019 0.68699998 0.037340738 2.3509886e-38
0.01686356 0.68699998 0.037340738 2.3509886e-38
0.018146999 0.69 0.037503798 2.3509886e-38
0.019356798 0.69 0.037503798 2.3509886e-38
0.020656019 0.69300002 0.037666857 2.3509886e-38
0.021871079 0.69300002 0.037666857 2.3509886e-38
0.023119451 0.69400001 0.037721213 2.3509886e-38
0.0244064 0.69599998 0.037829921 2.3509886e-38
0.025626717 0.69599998 0.037829921 2.3509886e-38
0.026885614 0.69700003 0.037884273 2.3509886e-38
0.028107686 0.69700003 0.037884273 2.3509886e-38
0.029371841 0.69800001 0.037938625 2.3509886e-38
0.030814834 0.70300001 0.038210396 2.3509886e-38
0.032093015 0.704 0.038264744 2.3509886e-38
0.033611398 0.70999998 0.038590867 2.3509886e-38
0.034856264 0.70999998 0.038590867 2.3509886e-38
0.036101133 0.70999998 0.038590867 2.3509886e-38
-0.063375987 0.68199998 0.035873197 2.3509886e-38
-0.062180214 0.68199998 0.035873197 2.3509886e-38
-0.060984433 0.68199998 0.035873197 2.3509886e-38
-0.059613332 0.68000001 0.035767999 2.3509886e-38
-0.058249239 0.67799997 0.0356628 2.3509886e-38
-0.056723841 0.67400002 0.035452399 2.3509886e-38
-0.055294871 0.671 0.0352946 2.3509886e-38
-0.054118387 0.671 0.0352946 2.3509886e-38
-0.052863002 0.67000002 0.035241999 2.3509886e-38
-0.051688269 0.67000002 0.035241999 2.3509886e-38
-0.050362743 0.66799998 0.035136797 2.3509886e-38
-0.049117878 0.667 0.035084199 2.3509886e-38
-0.047948405 0.667 0.035084199 2.3509886e-38
-0.046708796 0.66600001 0.035031598 2.3509886e-38
-0.045541082 0.66600001 0.035031598 2.3509886e-38
-0.044173479 0.66299999 0.034873798 2.3509886e-38
-0.042946145 0.662 0.034821201 2.3509886e-38
-0.04172232 0.66100001 0.0347686 2.3509886e-38
-0.040563367 0.66100001 0.0347686 2.3509886e-38
-0.039225571 0.65799999 0.034610797 2.3509886e-38
-0.038014017 0.65700001 0.034558199 2.3509886e-38
-0.036862079 0.65700001 0.034558199 2.3509886e-38
-0.03560143 0.65499997 0.034452997 2.3509886e-38
-0.034452997 0.65499997 0.034452997 2.3509886e-38
-0.033253718 0.65399998 0.034400396 2.3509886e-38
-0.03210704 0.65399998 0.034400396 2.3509886e-38
-0.03091302 0.653 0.034347799 2.3509886e-38
-0.029768093 0.653 0.034347799 2.3509886e-38
-0.028579334 0.65200001 0.034295198 2.3509886e-38
-0.02743616 0.65200001 0.034295198 2.3509886e-38
-0.026292987 0.65200001 0.034295198 2.3509886e-38
-0.025188386 0.653 0.034347799 2.3509886e-38
-0.024080278 0.65399998 0.034400396 2.3509886e-38
-0.022968665 0.65499997 0.034452997 2.3509886e-38
-0.021820232 0.65499997 0.034452997 2.3509886e-38
-0.020671798 0.65499997 0.034452997 2.3509886e-38
-0.019523365 0.65499997 0.034452997 2.3509886e-38
-0.018374931 0.65499997 0.034452997 2.3509886e-38
-0.0172791 0.65700001 0.034558199 2.3509886e-38
-0.016151706 0.65799999 0.034610797 2.3509886e-38
-0.015020805 0.65899998 0.034663398 2.3509886e-38
-0.01390744 0.66100001 0.0347686 2.3509886e-38
-0.012748486 0.66100001 0.0347686 2.3509886e-38
-0.011607066 0.662 0.034821201 2.3509886e-38
-0.01044636 0.662 0.034821201 2.3509886e-38
-0.0093137063 0.66399997 0.0349264 2.3509886e-38
-0.0081740404 0.66600001 0.035031598 2.3509886e-38
-0.0070063197 0.66600001 0.035031598 2.3509886e-38
-0.0058473665 0.667 0.035084199 2.3509886e-38
-0.0046778931 0.667 0.035084199 2.3509886e-38
-0.0035136798 0.66799998 0.035136797 2.3509886e-38
-0.0023494666 0.67000002 0.035241999 2.3509886e-38
-0.0011764866 0.671 0.0352946 2.3509886e-38
0 0.67199999 0.035347197 2.3509886e-38
0.0011817467 0.67400002 0.035452399 2.3509886e-38
0.0023669999 0.67500001 0.035505001 2.3509886e-38
0.0035557596 0.676 0.035557602 2.3509886e-38
0.0047550397 0.67799997 0.0356628 2.3509886e-38
0.0059437994 0.67799997 0.0356628 2.3509886e-38
0.0071535995 0.68000001 0.035767999 2.3509886e-38
0.0083458666 0.68000001 0.035767999 2.3509886e-38
0.009566186 0.68199998 0.035873197 2.3509886e-38
0.01077774 0.68300003 0.035925802 2.3509886e-38
0.011975267 0.68300003 0.035925802 2.3509886e-38
0.013230653 0.68599999 0.036083598 2.3509886e-38
0.01443344 0.68599999 0.036083598 2.3509886e-38
0.015659019 0.68699998 0.036136195 2.3509886e-38
0.016888106 0.68800002 0.0361888 2.3509886e-38
0.018146999 0.69 0.036293998 2.3509886e-38
0.019384852 0.69099998 0.036346599 2.3509886e-38
0.020656019 0.69300002 0.036451802 2.3509886e-38
0.021871079 0.69300002 0.036451802 2.3509886e-38
0.023119451 0.69400001 0.036504399 2.3509886e-38
0.0244064 0.69599998 0.036609598 2.3509886e-38
0.025663542 0.69700003 0.036662199 2.3509886e-38
0.026885614 0.69700003 0.036662199 2.3509886e-38
0.028107686 0.69700003 0.036662199 2.3509886e-38
0.029498078 0.70099998 0.036872596 2.3509886e-38
0.031034 0.708 0.0372408 2.3509886e-38
0.03227536 0.708 0.0372408 2.3509886e-38
0.033611398 0.70999998 0.037345998 2.3509886e-38
0.034856264 0.70999998 0.037345998 2.3509886e-38
0.036101133 0.70999998 0.037345998 2.3509886e-38
-0.063375987 0.68199998 0.034677424 2.3509886e-38
-0.062180214 0.68199998 0.034677424 2.3509886e-38
-0.060984433 0.68199998 0.034677424 2.3509886e-38
-0.059788663 0.68199998 0.034677424 2.3509886e-38
-0.058421064 0.68000001 0.034575731 2.3509886e-38
-0.057060476 0.67799997 0.034474038 2.3509886e-38
-0.055377278 0.67199999 0.034168959 2.3509886e-38
-0.054118387 0.671 0.034118112 2.3509886e-38
-0.052863002 0.67000002 0.034067266 2.3509886e-38
-0.051688269 0.67000002 0.034067266 2.3509886e-38
-0.050362743 0.66799998 0.033965573 2.3509886e-38
-0.04919152 0.66799998 0.033965573 2.3509886e-38
-0.047948405 0.667 0.033914726 2.3509886e-38
-0.046708796 0.66600001 0.03386388 2.3509886e-38
-0.045541082 0.66600001 0.03386388 2.3509886e-38
-0.044173479 0.66299999 0.033711337 2.3509886e-38
-0.042946145 0.662 0.033660494 2.3509886e-38
-0.04172232 0.66100001 0.033609647 2.3509886e-38
-0.040563367 0.66100001 0.033609647 2.3509886e-38
-0.039225571 0.65799999 0.033457108 2.3509886e-38
-0.038014017 0.65700001 0.033406258 2.3509886e-38
-0.036862079 0.65700001 0.033406258 2.3509886e-38
-0.03560143 0.65499997 0.033304565 2.3509886e-38
-0.034400396 0.65399998 0.033253718 2.3509886e-38
-0.033202872 0.653 0.033202872 2.3509886e-38
-0.032057945 0.653 0.033202872 2.3509886e-38
-0.030865679 0.65200001 0.033152029 2.3509886e-38
-0.029722504 0.65200001 0.033152029 2.3509886e-38
-0.028491667 0.64999998 0.033050328 2.3509886e-38
-0.027351998 0.64999998 0.033050328 2.3509886e-38
-0.026212333 0.64999998 0.033050328 2.3509886e-38
-0.025149813 0.65200001 0.033152029 2.3509886e-38
-0.024043459 0.653 0.033202872 2.3509886e-38
-0.022968665 0.65499997 0.033304565 2.3509886e-38
-0.021820232 0.65499997 0.033304565 2.3509886e-38
-0.020671798 0.65499997 0.033304565 2.3509886e-38
-0.019523365 0.65499997 0.033304565 2.3509886e-38
-0.018374931 0.65499997 0.033304565 2.3509886e-38
-0.0172791 0.65700001 0.033406258 2.3509886e-38
-0.016151706 0.65799999 0.033457108 2.3509886e-38
-0.015020805 0.65899998 0.033507951 2.3509886e-38
-0.013865359 0.65899998 0.033507951 2.3509886e-38
-0.012748486 0.66100001 0.033609647 2.3509886e-38
-0.011607066 0.662 0.033660494 2.3509886e-38
-0.01044636 0.662 0.033660494 2.3509886e-38
-0.0093137063 0.66399997 0.033762183 2.3509886e-38
-0.0081740404 0.66600001 0.03386388 2.3509886e-38
-0.0070168395 0.667 0.033914726 2.3509886e-38
-0.0058561331 0.66799998 0.033965573 2.3509886e-38
-0.0046849065 0.66799998 0.033965573 2.3509886e-38
-0.0035241998 0.67000002 0.034067266 2.3509886e-38
-0.0023529732 0.671 0.034118112 2.3509886e-38
-0.0011782399 0.67199999 0.034168959 2.3509886e-38
0 0.67199999 0.034168959 2.3509886e-38
0.0011834999 0.67500001 0.034321502 2.3509886e-38
0.0023705065 0.676 0.034372345 2.3509886e-38
0.0035557596 0.676 0.034372345 2.3509886e-38
0.0047550397 0.67799997 0.034474038 2.3509886e-38
0.0059525664 0.67900002 0.034524884 2.3509886e-38
0.0071535995 0.68000001 0.034575731 2.3509886e-38
0.0083458666 0.68000001 0.034575731 2.3509886e-38
0.009566186 0.68199998 0.034677424 2.3509886e-38
0.01077774 0.68300003 0.034728274 2.3509886e-38
0.0119928 0.68400002 0.03477912 2.3509886e-38
0.013230653 0.68599999 0.034880809 2.3509886e-38
0.014454478 0.68699998 0.034931656 2.3509886e-38
0.015681813 0.68800002 0.03498251 2.3509886e-38
0.0169372 0.69 0.035084199 2.3509886e-38
0.0181733 0.69099998 0.035135046 2.3509886e-38
0.01944096 0.69300002 0.035236739 2.3509886e-38
0.020656019 0.69300002 0.035236739 2.3509886e-38
0.021902639 0.69400001 0.035287585 2.3509886e-38
0.023119451 0.69400001 0.035287585 2.3509886e-38
0.024441468 0.69700003 0.035440128 2.3509886e-38
0.025663542 0.69700003 0.035440128 2.3509886e-38
0.026924185 0.69800001 0.035490975 2.3509886e-38
0.028228667 0.69999999 0.035592664 2.3509886e-38
0.029708479 0.70599997 0.035897743 2.3509886e-38
0.031034 0.708 0.03599944 2.3509886e-38
0.032366529 0.70999998 0.036101133 2.3509886e-38
0.033611398 0.70999998 0.036101133 2.3509886e-38
0.034856264 0.70999998 0.036101133 2.3509886e-38
0.036101133 0.70999998 0.036101133 2.3509886e-38
0.037556399 0.71399999 0.036304519 2.3509886e-38
0.038808275 0.71399999 0.036304519 2.3509886e-38
-0.063468911 0.68300003 0.033530746 2.3509886e-38
-0.06227139 0.68300003 0.033530746 2.3509886e-38
-0.061073858 0.68300003 0.033530746 2.3509886e-38
-0.059788663 0.68199998 0.03348165 2.3509886e-38
-0.058421064 0.68000001 0.033383466 2.3509886e-38
-0.057060476 0.67799997 0.033285279 2.3509886e-38
-0.055706903 0.676 0.033187091 2.3509886e-38
-0.054360349 0.67400002 0.033088908 2.3509886e-38
-0.052941896 0.671 0.032941625 2.3509886e-38
-0.051688269 0.67000002 0.032892533 2.3509886e-38
-0.050362743 0.66799998 0.032794341 2.3509886e-38
-0.04919152 0.66799998 0.032794341 2.3509886e-38
-0.047948405 0.667 0.032745253 2.3509886e-38
-0.046708796 0.66600001 0.032696161 2.3509886e-38
-0.045541082 0.66600001 0.032696161 2.3509886e-38
-0.044173479 0.66299999 0.032548878 2.3509886e-38
-0.042946145 0.662 0.032499783 2.3509886e-38
-0.041596077 0.65899998 0.032352503 2.3509886e-38
-0.04044063 0.65899998 0.032352503 2.3509886e-38
-0.039225571 0.65799999 0.032303412 2.3509886e-38
-0.038014017 0.65700001 0.03225432 2.3509886e-38
-0.036862079 0.65700001 0.03225432 2.3509886e-38
-0.03560143 0.65499997 0.032156132 2.3509886e-38
-0.034400396 0.65399998 0.03210704 2.3509886e-38
-0.033202872 0.653 0.032057945 2.3509886e-38
-0.032008853 0.65200001 0.032008853 2.3509886e-38
-0.030865679 0.65200001 0.032008853 2.3509886e-38
-0.029722504 0.65200001 0.032008853 2.3509886e-38
-0.028491667 0.64999998 0.031910665 2.3509886e-38
-0.027351998 0.64999998 0.031910665 2.3509886e-38
-0.026212333 0.64999998 0.031910665 2.3509886e-38
-0.025149813 0.65200001 0.032008853 2.3509886e-38
-0.024043459 0.653 0.032057945 2.3509886e-38
-0.022968665 0.65499997 0.032156132 2.3509886e-38
-0.021820232 0.65499997 0.032156132 2.3509886e-38
-0.020671798 0.65499997 0.032156132 2.3509886e-38
-0.019523365 0.65499997 0.032156132 2.3509886e-38
-0.018374931 0.65499997 0.032156132 2.3509886e-38
-0.0172791 0.65700001 0.03225432 2.3509886e-38
-0.01612716 0.65700001 0.03225432 2.3509886e-38
-0.014998012 0.65799999 0.032303412 2.3509886e-38
-0.013865359 0.65899998 0.032352503 2.3509886e-38
-0.012748486 0.66100001 0.032450691 2.3509886e-38
-0.011607066 0.662 0.032499783 2.3509886e-38
-0.01046214 0.66299999 0.032548878 2.3509886e-38
-0.0093137063 0.66399997 0.03259797 2.3509886e-38
-0.0081740404 0.66600001 0.032696161 2.3509886e-38
-0.0070168395 0.667 0.032745253 2.3509886e-38
-0.0058561331 0.66799998 0.032794341 2.3509886e-38
-0.0046989331 0.67000002 0.032892533 2.3509886e-38
-0.0035241998 0.67000002 0.032892533 2.3509886e-38
-0.0023529732 0.671 0.032941625 2.3509886e-38
-0.0011782399 0.67199999 0.03299072 2.3509886e-38
0 0.67199999 0.03299072 2.3509886e-38
0.0011834999 0.67500001 0.033137999 2.3509886e-38
0.0023705065 0.676 0.033187091 2.3509886e-38
0.0035662798 0.67799997 0.033285279 2.3509886e-38
0.0047550397 0.67799997 0.033285279 2.3509886e-38
0.0059525664 0.67900002 0.033334374 2.3509886e-38
0.0071535995 0.68000001 0.033383466 2.3509886e-38
0.0083458666 0.68000001 0.033383466 2.3509886e-38
0.009566186 0.68199998 0.03348165 2.3509886e-38
0.01079352 0.68400002 0.033579841 2.3509886e-38
0.0119928 0.68400002 0.033579841 2.3509886e-38
0.013230653 0.68599999 0.033678025 2.3509886e-38
0.014454478 0.68699998 0.033727121 2.3509886e-38
0.015727401 0.69 0.0338744 2.3509886e-38
0.016961746 0.69099998 0.033923492 2.3509886e-38
0.018225901 0.69300002 0.034021679 2.3509886e-38
0.01944096 0.69300002 0.034021679 2.3509886e-38
0.020685827 0.69400001 0.034070771 2.3509886e-38
0.021902639 0.69400001 0.034070771 2.3509886e-38
0.023186078 0.69599998 0.034168959 2.3509886e-38
0.024441468 0.69700003 0.034218054 2.3509886e-38
0.025700359 0.69800001 0.034267146 2.3509886e-38
0.027039904 0.70099998 0.034414422 2.3509886e-38
0.028389972 0.704 0.034561705 2.3509886e-38
0.029708479 0.70599997 0.034659892 2.3509886e-38
0.030990168 0.70700002 0.034708988 2.3509886e-38
0.032366529 0.70999998 0.034856264 2.3509886e-38
0.033611398 0.70999998 0.034856264 2.3509886e-38
0.034856264 0.70999998 0.034856264 2.3509886e-38
0.036151983 0.71100003 0.034905359 2.3509886e-38
0.037556399 0.71399999 0.035052639 2.3509886e-38
0.038808275 0.71399999 0.035052639 2.3509886e-38
0.040172372 0.71600002 0.035150826 2.3509886e-38
-0.06227139 0.68300003 0.032333218 2.3509886e-38
-0.061073858 0.68300003 0.032333218 2.3509886e-38
-0.059788663 0.68199998 0.032285877 2.3509886e-38
-0.058421064 0.68000001 0.032191198 2.3509886e-38
-0.057060476 0.67799997 0.03209652 2.3509886e-38
-0.055706903 0.676 0.032001842 2.3509886e-38
-0.054360349 0.67400002 0.03190716 2.3509886e-38
-0.053020798 0.67199999 0.031812478 2.3509886e-38
-0.051765412 0.671 0.031765141 2.3509886e-38
-0.050513536 0.67000002 0.0317178 2.3509886e-38
-0.04919152 0.66799998 0.031623118 2.3509886e-38
-0.047948405 0.667 0.03157578 2.3509886e-38
-0.046708796 0.66600001 0.031528439 2.3509886e-38
-0.045404319 0.66399997 0.031433757 2.3509886e-38
-0.044173479 0.66299999 0.031386416 2.3509886e-38
-0.042946145 0.662 0.031339079 2.3509886e-38
-0.041596077 0.65899998 0.031197058 2.3509886e-38
-0.04044063 0.65899998 0.031197058 2.3509886e-38
-0.039225571 0.65799999 0.031149717 2.3509886e-38
-0.038014017 0.65700001 0.03110238 2.3509886e-38
-0.036862079 0.65700001 0.03110238 2.3509886e-38
-0.03560143 0.65499997 0.031007698 2.3509886e-38
-0.034400396 0.65399998 0.030960357 2.3509886e-38
-0.033202872 0.653 0.03091302 2.3509886e-38
-0.032008853 0.65200001 0.030865679 2.3509886e-38
-0.030865679 0.65200001 0.030865679 2.3509886e-38
-0.029722504 0.65200001 0.030865679 2.3509886e-38
-0.028491667 0.64999998 0.030770998 2.3509886e-38
-0.027351998 0.64999998 0.030770998 2.3509886e-38
-0.026292987 0.65200001 0.030865679 2.3509886e-38
-0.025149813 0.65200001 0.030865679 2.3509886e-38
-0.024043459 0.653 0.03091302 2.3509886e-38
-0.022933599 0.65399998 0.030960357 2.3509886e-38
-0.021820232 0.65499997 0.031007698 2.3509886e-38
-0.020671798 0.65499997 0.031007698 2.3509886e-38
-0.019523365 0.65499997 0.031007698 2.3509886e-38
-0.018374931 0.65499997 0.031007698 2.3509886e-38
-0.0172791 0.65700001 0.03110238 2.3509886e-38
-0.01612716 0.65700001 0.03110238 2.3509886e-38
-0.014998012 0.65799999 0.031149717 2.3509886e-38
-0.013865359 0.65899998 0.031197058 2.3509886e-38
-0.012748486 0.66100001 0.031291738 2.3509886e-38
-0.011607066 0.662 0.031339079 2.3509886e-38
-0.01046214 0.66299999 0.031386416 2.3509886e-38
-0.0093417596 0.66600001 0.031528439 2.3509886e-38
-0.0081863133 0.667 0.03157578 2.3509886e-38
-0.0070273597 0.66799998 0.031623118 2.3509886e-38
-0.0058736666 0.67000002 0.0317178 2.3509886e-38
-0.0046989331 0.67000002 0.0317178 2.3509886e-38
-0.0035294599 0.671 0.031765141 2.3509886e-38
-0.0023529732 0.671 0.031765141 2.3509886e-38
-0.0011782399 0.67199999 0.031812478 2.3509886e-38
0 0.67500001 0.031954501 2.3509886e-38
0.0011852533 0.676 0.032001842 2.3509886e-38
0.0023705065 0.676 0.032001842 2.3509886e-38
0.0035662798 0.67799997 0.03209652 2.3509886e-38
0.0047550397 0.67799997 0.03209652 2.3509886e-38
0.0059525664 0.67900002 0.032143861 2.3509886e-38
0.0071535995 0.68000001 0.032191198 2.3509886e-38
0.0083458666 0.68000001 0.032191198 2.3509886e-38
0.009566186 0.68199998 0.032285877 2.3509886e-38
0.01079352 0.68400002 0.032380559 2.3509886e-38
0.012027865 0.68599999 0.032475237 2.3509886e-38
0.013230653 0.68599999 0.032475237 2.3509886e-38
0.014454478 0.68699998 0.032522578 2.3509886e-38
0.015727401 0.69 0.032664597 2.3509886e-38
0.016961746 0.69099998 0.032711938 2.3509886e-38
0.018225901 0.69300002 0.03280662 2.3509886e-38
0.01944096 0.69300002 0.03280662 2.3509886e-38
0.020685827 0.69400001 0.032853961 2.3509886e-38
0.021965759 0.69599998 0.032948639 2.3509886e-38
0.023219392 0.69700003 0.03299598 2.3509886e-38
0.024476532 0.69800001 0.033043321 2.3509886e-38
0.025810819 0.70099998 0.03318534 2.3509886e-38
0.027117053 0.70300001 0.033280019 2.3509886e-38
0.028389972 0.704 0.03332736 2.3509886e-38
0.029708479 0.70599997 0.033422034 2.3509886e-38
0.030990168 0.70700002 0.033469379 2.3509886e-38
0.03227536 0.708 0.033516716 2.3509886e-38
0.033611398 0.70999998 0.033611398 2.3509886e-38
0.034856264 0.70999998 0.033611398 2.3509886e-38
0.036151983 0.71100003 0.033658739 2.3509886e-38
0.037556399 0.71399999 0.033800758 2.3509886e-38
0.038808275 0.71399999 0.033800758 2.3509886e-38
0.040172372 0.71600002 0.03389544 2.3509886e-38
-0.062362559 0.68400002 0.03118128 2.3509886e-38
-0.061073858 0.68300003 0.031135695 2.3509886e-38
-0.059876334 0.68300003 0.031135695 2.3509886e-38
-0.058592889 0.68199998 0.031090107 2.3509886e-38
-0.057144642 0.67900002 0.030953348 2.3509886e-38
-0.055706903 0.676 0.030816587 2.3509886e-38
-0.054441001 0.67500001 0.030771 2.3509886e-38
-0.053020798 0.67199999 0.030634239 2.3509886e-38
-0.051765412 0.671 0.030588651 2.3509886e-38
-0.050513536 0.67000002 0.030543067 2.3509886e-38
-0.04919152 0.66799998 0.030451892 2.3509886e-38
-0.047948405 0.667 0.030406304 2.3509886e-38
-0.046708796 0.66600001 0.030360719 2.3509886e-38
-0.045404319 0.66399997 0.030269546 2.3509886e-38
-0.044173479 0.66299999 0.030223956 2.3509886e-38
-0.042946145 0.662 0.030178372 2.3509886e-38
-0.04172232 0.66100001 0.030132787 2.3509886e-38
-0.04044063 0.65899998 0.030041611 2.3509886e-38
-0.039225571 0.65799999 0.029996024 2.3509886e-38
-0.038014017 0.65700001 0.02995044 2.3509886e-38
-0.036862079 0.65700001 0.02995044 2.3509886e-38
-0.03560143 0.65499997 0.029859263 2.3509886e-38
-0.034400396 0.65399998 0.029813679 2.3509886e-38
-0.033202872 0.653 0.029768093 2.3509886e-38
-0.032057945 0.653 0.029768093 2.3509886e-38
-0.030865679 0.65200001 0.029722504 2.3509886e-38
-0.029722504 0.65200001 0.029722504 2.3509886e-38
-0.028579334 0.65200001 0.029722504 2.3509886e-38
-0.02743616 0.65200001 0.029722504 2.3509886e-38
-0.026292987 0.65200001 0.029722504 2.3509886e-38
-0.025149813 0.65200001 0.029722504 2.3509886e-38
-0.024043459 0.653 0.029768093 2.3509886e-38
-0.022933599 0.65399998 0.029813679 2.3509886e-38
-0.021820232 0.65499997 0.029859263 2.3509886e-38
-0.020671798 0.65499997 0.029859263 2.3509886e-38
-0.019523365 0.65499997 0.029859263 2.3509886e-38
-0.018374931 0.65499997 0.029859263 2.3509886e-38
-0.0172791 0.65700001 0.02995044 2.3509886e-38
-0.016151706 0.65799999 0.029996024 2.3509886e-38
-0.015020805 0.65899998 0.030041611 2.3509886e-38
-0.01390744 0.66100001 0.030132787 2.3509886e-38
-0.012767773 0.662 0.030178372 2.3509886e-38
-0.011607066 0.662 0.030178372 2.3509886e-38
-0.010477919 0.66399997 0.030269546 2.3509886e-38
-0.0093417596 0.66600001 0.030360719 2.3509886e-38
-0.0081863133 0.667 0.030406304 2.3509886e-38
-0.0070273597 0.66799998 0.030451892 2.3509886e-38
-0.0058736666 0.67000002 0.030543067 2.3509886e-38
-0.0046989331 0.67000002 0.030543067 2.3509886e-38
-0.0035294599 0.671 0.030588651 2.3509886e-38
-0.0023529732 0.671 0.030588651 2.3509886e-38
-0.0011782399 0.67199999 0.030634239 2.3509886e-38
0 0.67500001 0.030771 2.3509886e-38
0.0011852533 0.676 0.030816587 2.3509886e-38
0.0023775198 0.67799997 0.030907756 2.3509886e-38
0.0035662798 0.67799997 0.030907756 2.3509886e-38
0.0047550397 0.67799997 0.030907756 2.3509886e-38
0.0059525664 0.67900002 0.030953348 2.3509886e-38
0.0071535995 0.68000001 0.030998932 2.3509886e-38
0.0083458666 0.68000001 0.030998932 2.3509886e-38
0.009566186 0.68199998 0.031090107 2.3509886e-38
0.01079352 0.68400002 0.03118128 2.3509886e-38
0.012027865 0.68599999 0.031272452 2.3509886e-38
0.013249939 0.68699998 0.031318039 2.3509886e-38
0.014475521 0.68800002 0.031363625 2.3509886e-38
0.015750192 0.69099998 0.031500384 2.3509886e-38
0.01701084 0.69300002 0.031591557 2.3509886e-38
0.018225901 0.69300002 0.031591557 2.3509886e-38
0.019469013 0.69400001 0.031637147 2.3509886e-38
0.020685827 0.69400001 0.031637147 2.3509886e-38
0.02199732 0.69700003 0.03177391 2.3509886e-38
0.023252707 0.69800001 0.031819493 2.3509886e-38
0.024581732 0.70099998 0.031956252 2.3509886e-38
0.025884461 0.70300001 0.032047424 2.3509886e-38
0.027117053 0.70300001 0.032047424 2.3509886e-38
0.028389972 0.704 0.032093015 2.3509886e-38
0.029708479 0.70599997 0.032184184 2.3509886e-38
0.030990168 0.70700002 0.032229774 2.3509886e-38
0.03227536 0.708 0.03227536 2.3509886e-38
0.033611398 0.70999998 0.032366529 2.3509886e-38
0.034856264 0.70999998 0.032366529 2.3509886e-38
0.036151983 0.71100003 0.032412119 2.3509886e-38
0.037503798 0.713 0.032503292 2.3509886e-38
0.038808275 0.71399999 0.032548878 2.3509886e-38
0.040172372 0.71600002 0.032640055 2.3509886e-38
-0.062362559 0.68400002 0.029982001 2.3509886e-38
-0.061073858 0.68300003 0.029938167 2.3509886e-38
-0.059876334 0.68300003 0.029938167 2.3509886e-38
-0.05867881 0.68300003 0.029938167 2.3509886e-38
-0.057228796 0.68000001 0.029806666 2.3509886e-38
-0.055871718 0.67799997 0.029718997 2.3509886e-38
-0.054521654 0.676 0.029631332 2.3509886e-38
-0.053020798 0.67199999 0.029455997 2.3509886e-38
-0.051765412 0.671 0.029412165 2.3509886e-38
-0.050513536 0.67000002 0.029368332 2.3509886e-38
-0.049338799 0.67000002 0.029368332 2.3509886e-38
-0.048020288 0.66799998 0.029280664 2.3509886e-38
-0.046778932 0.667 0.029236831 2.3509886e-38
-0.045541082 0.66600001 0.029192999 2.3509886e-38
-0.044173479 0.66299999 0.029061496 2.3509886e-38
-0.042946145 0.662 0.029017664 2.3509886e-38
-0.04172232 0.66100001 0.028973831 2.3509886e-38
-0.04044063 0.65899998 0.028886165 2.3509886e-38
-0.039225571 0.65799999 0.028842334 2.3509886e-38
-0.038014017 0.65700001 0.028798498 2.3509886e-38
-0.036862079 0.65700001 0.028798498 2.3509886e-38
-0.03560143 0.65499997 0.028710833 2.3509886e-38
-0.034452997 0.65499997 0.028710833 2.3509886e-38
-0.033253718 0.65399998 0.028666999 2.3509886e-38
-0.032057945 0.653 0.028623167 2.3509886e-38
-0.030865679 0.65200001 0.028579334 2.3509886e-38
-0.029722504 0.65200001 0.028579334 2.3509886e-38
-0.028579334 0.65200001 0.028579334 2.3509886e-38
-0.02743616 0.65200001 0.028579334 2.3509886e-38
-0.026292987 0.65200001 0.028579334 2.3509886e-38
-0.025149813 0.65200001 0.028579334 2.3509886e-38
-0.024043459 0.653 0.028623167 2.3509886e-38
-0.022933599 0.65399998 0.028666999 2.3509886e-38
-0.021820232 0.65499997 0.028710833 2.3509886e-38
-0.020671798 0.65499997 0.028710833 2.3509886e-38
-0.019523365 0.65499997 0.028710833 2.3509886e-38
-0.018374931 0.65499997 0.028710833 2.3509886e-38
-0.0172791 0.65700001 0.028798498 2.3509886e-38
-0.016151706 0.65799999 0.028842334 2.3509886e-38
-0.015020805 0.65899998 0.028886165 2.3509886e-38
-0.01390744 0.66100001 0.028973831 2.3509886e-38
-0.012767773 0.662 0.029017664 2.3509886e-38
-0.011642133 0.66399997 0.02910533 2.3509886e-38
-0.010477919 0.66399997 0.02910533 2.3509886e-38
-0.0093417596 0.66600001 0.029192999 2.3509886e-38
-0.0081863133 0.667 0.029236831 2.3509886e-38
-0.0070273597 0.66799998 0.029280664 2.3509886e-38
-0.0058736666 0.67000002 0.029368332 2.3509886e-38
-0.0046989331 0.67000002 0.029368332 2.3509886e-38
-0.0035294599 0.671 0.029412165 2.3509886e-38
-0.0023529732 0.671 0.029412165 2.3509886e-38
-0.0011782399 0.67199999 0.029455997 2.3509886e-38
0 0.67400002 0.029543666 2.3509886e-38
0.0011834999 0.67500001 0.0295875 2.3509886e-38
0.0023775198 0.67799997 0.029718997 2.3509886e-38
0.0035662798 0.67799997 0.029718997 2.3509886e-38
0.0047620535 0.67900002 0.029762832 2.3509886e-38
0.0059525664 0.67900002 0.029762832 2.3509886e-38
0.0071535995 0.68000001 0.029806666 2.3509886e-38
0.0083704125 0.68199998 0.029894331 2.3509886e-38
0.009566186 0.68199998 0.029894331 2.3509886e-38
0.01079352 0.68400002 0.029982001 2.3509886e-38
0.012027865 0.68599999 0.030069664 2.3509886e-38
0.013249939 0.68699998 0.030113498 2.3509886e-38
0.014475521 0.68800002 0.030157333 2.3509886e-38
0.015750192 0.69099998 0.030288832 2.3509886e-38
0.01701084 0.69300002 0.0303765 2.3509886e-38
0.0182522 0.69400001 0.030420333 2.3509886e-38
0.019469013 0.69400001 0.030420333 2.3509886e-38
0.020685827 0.69400001 0.030420333 2.3509886e-38
0.02199732 0.69700003 0.030551834 2.3509886e-38
0.023319334 0.69999999 0.030683333 2.3509886e-38
0.024581732 0.70099998 0.030727165 2.3509886e-38
0.025884461 0.70300001 0.030814834 2.3509886e-38
0.027117053 0.70300001 0.030814834 2.3509886e-38
0.028389972 0.704 0.030858666 2.3509886e-38
0.029708479 0.70599997 0.030946331 2.3509886e-38
0.030990168 0.70700002 0.030990168 2.3509886e-38
0.03227536 0.708 0.031034 2.3509886e-38
0.033611398 0.70999998 0.031121666 2.3509886e-38
0.034856264 0.70999998 0.031121666 2.3509886e-38
0.036151983 0.71100003 0.031165501 2.3509886e-38
0.037503798 0.713 0.031253166 2.3509886e-38
0.038808275 0.71399999 0.031296998 2.3509886e-38
-0.062544905 0.68599999 0.02886688 2.3509886e-38
-0.061342116 0.68599999 0.02886688 2.3509886e-38
-0.060139328 0.68599999 0.02886688 2.3509886e-38
-0.05867881 0.68300003 0.028740639 2.3509886e-38
-0.05739712 0.68199998 0.02869856 2.3509886e-38
-0.056036532 0.68000001 0.028614398 2.3509886e-38
-0.054682959 0.67799997 0.028530238 2.3509886e-38
-0.053178601 0.67400002 0.02836192 2.3509886e-38
-0.051765412 0.671 0.028235679 2.3509886e-38
-0.050513536 0.67000002 0.028193599 2.3509886e-38
-0.049338799 0.67000002 0.028193599 2.3509886e-38
-0.048020288 0.66799998 0.028109439 2.3509886e-38
-0.046778932 0.667 0.028067358 2.3509886e-38
-0.045541082 0.66600001 0.028025279 2.3509886e-38
-0.044240102 0.66399997 0.027941117 2.3509886e-38
-0.043011017 0.66299999 0.027899038 2.3509886e-38
-0.041785441 0.662 0.027856959 2.3509886e-38
-0.040563367 0.66100001 0.02781488 2.3509886e-38
-0.039285187 0.65899998 0.027730718 2.3509886e-38
-0.038071878 0.65799999 0.027688639 2.3509886e-38
-0.036862079 0.65700001 0.027646558 2.3509886e-38
-0.03560143 0.65499997 0.027562398 2.3509886e-38
-0.034452997 0.65499997 0.027562398 2.3509886e-38
-0.033253718 0.65399998 0.027520318 2.3509886e-38
-0.032057945 0.653 0.027478239 2.3509886e-38
-0.030865679 0.65200001 0.02743616 2.3509886e-38
-0.029722504 0.65200001 0.02743616 2.3509886e-38
-0.028579334 0.65200001 0.02743616 2.3509886e-38
-0.02743616 0.65200001 0.02743616 2.3509886e-38
-0.026292987 0.65200001 0.02743616 2.3509886e-38
-0.025149813 0.65200001 0.02743616 2.3509886e-38
-0.024043459 0.653 0.027478239 2.3509886e-38
-0.022933599 0.65399998 0.027520318 2.3509886e-38
-0.021820232 0.65499997 0.027562398 2.3509886e-38
-0.020671798 0.65499997 0.027562398 2.3509886e-38
-0.019523365 0.65499997 0.027562398 2.3509886e-38
-0.01843104 0.65700001 0.027646558 2.3509886e-38
-0.017305398 0.65799999 0.027688639 2.3509886e-38
-0.016176252 0.65899998 0.027730718 2.3509886e-38
-0.015066394 0.66100001 0.02781488 2.3509886e-38
-0.01392848 0.662 0.027856959 2.3509886e-38
-0.012787059 0.66299999 0.027899038 2.3509886e-38
-0.011642133 0.66399997 0.027941117 2.3509886e-38
-0.010477919 0.66399997 0.027941117 2.3509886e-38
-0.0093417596 0.66600001 0.028025279 2.3509886e-38
-0.0081863133 0.667 0.028067358 2.3509886e-38
-0.0070273597 0.66799998 0.028109439 2.3509886e-38
-0.0058736666 0.67000002 0.028193599 2.3509886e-38
-0.0046989331 0.67000002 0.028193599 2.3509886e-38
-0.0035294599 0.671 0.028235679 2.3509886e-38
-0.0023529732 0.671 0.028235679 2.3509886e-38
-0.0011782399 0.67199999 0.02827776 2.3509886e-38
0 0.67400002 0.02836192 2.3509886e-38
0.0011834999 0.67500001 0.028404001 2.3509886e-38
0.0023775198 0.67799997 0.028530238 2.3509886e-38
0.0035662798 0.67799997 0.028530238 2.3509886e-38
0.0047620535 0.67900002 0.028572321 2.3509886e-38
0.0059613334 0.68000001 0.028614398 2.3509886e-38
0.0071535995 0.68000001 0.028614398 2.3509886e-38
0.0083704125 0.68199998 0.02869856 2.3509886e-38
0.009566186 0.68199998 0.02869856 2.3509886e-38
0.010825079 0.68599999 0.02886688 2.3509886e-38
0.012045399 0.68699998 0.028908957 2.3509886e-38
0.013269227 0.68800002 0.028951041 2.3509886e-38
0.014517599 0.69 0.029035198 2.3509886e-38
0.015750192 0.69099998 0.029077278 2.3509886e-38
0.01701084 0.69300002 0.029161438 2.3509886e-38
0.0182522 0.69400001 0.029203519 2.3509886e-38
0.019469013 0.69400001 0.029203519 2.3509886e-38
0.020745439 0.69599998 0.029287677 2.3509886e-38
0.02202888 0.69800001 0.029371841 2.3509886e-38
0.023352645 0.70099998 0.029498078 2.3509886e-38
0.024581732 0.70099998 0.029498078 2.3509886e-38
0.025884461 0.70300001 0.029582238 2.3509886e-38
0.027155625 0.704 0.029624319 2.3509886e-38
0.028389972 0.704 0.029624319 2.3509886e-38
0.029708479 0.70599997 0.029708479 2.3509886e-38
0.031034 0.708 0.02979264 2.3509886e-38
0.032366529 0.70999998 0.029876797 2.3509886e-38
0.033611398 0.70999998 0.029876797 2.3509886e-38
0.034856264 0.70999998 0.029876797 2.3509886e-38
0.036151983 0.71100003 0.029918881 2.3509886e-38
0.037503798 0.713 0.030003037 2.3509886e-38
0.038808275 0.71399999 0.030045118 2.3509886e-38
-0.062636077 0.68699998 0.027704418 2.3509886e-38
-0.061342116 0.68599999 0.027664091 2.3509886e-38
-0.059876334 0.68300003 0.027543113 2.3509886e-38
-0.05867881 0.68300003 0.027543113 2.3509886e-38
-0.05739712 0.68199998 0.027502786 2.3509886e-38
-0.056036532 0.68000001 0.027422134 2.3509886e-38
-0.054682959 0.67799997 0.027341479 2.3509886e-38
-0.053336397 0.676 0.027260827 2.3509886e-38
-0.051842555 0.67199999 0.027099518 2.3509886e-38
-0.050588924 0.671 0.027059194 2.3509886e-38
-0.049412437 0.671 0.027059194 2.3509886e-38
-0.048164066 0.67000002 0.027018867 2.3509886e-38
-0.046849065 0.66799998 0.026938211 2.3509886e-38
-0.045541082 0.66600001 0.026857559 2.3509886e-38
-0.044240102 0.66399997 0.026776904 2.3509886e-38
-0.043011017 0.66299999 0.026736578 2.3509886e-38
-0.041785441 0.662 0.026696252 2.3509886e-38
-0.040563367 0.66100001 0.026655925 2.3509886e-38
-0.039285187 0.65899998 0.026575271 2.3509886e-38
-0.038071878 0.65799999 0.026534945 2.3509886e-38
-0.036918186 0.65799999 0.026534945 2.3509886e-38
-0.035710141 0.65700001 0.026494619 2.3509886e-38
-0.034452997 0.65499997 0.026413966 2.3509886e-38
-0.033253718 0.65399998 0.02637364 2.3509886e-38
-0.03210704 0.65399998 0.02637364 2.3509886e-38
-0.03091302 0.653 0.026333313 2.3509886e-38
-0.029768093 0.653 0.026333313 2.3509886e-38
-0.028579334 0.65200001 0.026292987 2.3509886e-38
-0.02743616 0.65200001 0.026292987 2.3509886e-38
-0.026333313 0.653 0.026333313 2.3509886e-38
-0.025188386 0.653 0.026333313 2.3509886e-38
-0.024043459 0.653 0.026333313 2.3509886e-38
-0.022933599 0.65399998 0.02637364 2.3509886e-38
-0.021820232 0.65499997 0.026413966 2.3509886e-38
-0.020671798 0.65499997 0.026413966 2.3509886e-38
-0.019523365 0.65499997 0.026413966 2.3509886e-38
-0.01843104 0.65700001 0.026494619 2.3509886e-38
-0.017305398 0.65799999 0.026534945 2.3509886e-38
-0.016176252 0.65899998 0.026575271 2.3509886e-38
-0.015066394 0.66100001 0.026655925 2.3509886e-38
-0.01392848 0.662 0.026696252 2.3509886e-38
-0.012787059 0.66299999 0.026736578 2.3509886e-38
-0.011642133 0.66399997 0.026776904 2.3509886e-38
-0.01050948 0.66600001 0.026857559 2.3509886e-38
-0.0093417596 0.66600001 0.026857559 2.3509886e-38
-0.0081863133 0.667 0.026897885 2.3509886e-38
-0.0070273597 0.66799998 0.026938211 2.3509886e-38
-0.0058736666 0.67000002 0.027018867 2.3509886e-38
-0.0046989331 0.67000002 0.027018867 2.3509886e-38
-0.0035294599 0.671 0.027059194 2.3509886e-38
-0.0023529732 0.671 0.027059194 2.3509886e-38
-0.0011817467 0.67400002 0.027180174 2.3509886e-38
0 0.67500001 0.027220501 2.3509886e-38
0.0011852533 0.676 0.027260827 2.3509886e-38
0.0023775198 0.67799997 0.027341479 2.3509886e-38
0.0035715401 0.67900002 0.027381808 2.3509886e-38
0.0047620535 0.67900002 0.027381808 2.3509886e-38
0.0059613334 0.68000001 0.027422134 2.3509886e-38
0.00717464 0.68199998 0.027502786 2.3509886e-38
0.0083704125 0.68199998 0.027502786 2.3509886e-38
0.009566186 0.68199998 0.027502786 2.3509886e-38
0.010825079 0.68599999 0.027664091 2.3509886e-38
0.012045399 0.68699998 0.027704418 2.3509886e-38
0.013269227 0.68800002 0.027744746 2.3509886e-38
0.014517599 0.69 0.027825398 2.3509886e-38
0.015750192 0.69099998 0.027865725 2.3509886e-38
0.01701084 0.69300002 0.027946379 2.3509886e-38
0.0182522 0.69400001 0.027986705 2.3509886e-38
0.019525118 0.69599998 0.028067358 2.3509886e-38
0.020775247 0.69700003 0.028107686 2.3509886e-38
0.022091998 0.69999999 0.028228667 2.3509886e-38
0.023352645 0.70099998 0.028268991 2.3509886e-38
0.024651866 0.70300001 0.028349647 2.3509886e-38
0.02592128 0.704 0.028389972 2.3509886e-38
0.027155625 0.704 0.028389972 2.3509886e-38
0.028470624 0.70599997 0.028470624 2.3509886e-38
0.029750559 0.70700002 0.028510952 2.3509886e-38
0.031034 0.708 0.02855128 2.3509886e-38
0.032366529 0.70999998 0.028631933 2.3509886e-38
0.033611398 0.70999998 0.028631933 2.3509886e-38
0.034856264 0.70999998 0.028631933 2.3509886e-38
0.036151983 0.71100003 0.028672259 2.3509886e-38
0.037503798 0.713 0.028752912 2.3509886e-38
-0.061163284 0.68400002 0.02638416 2.3509886e-38
-0.059876334 0.68300003 0.026345588 2.3509886e-38
-0.05867881 0.68300003 0.026345588 2.3509886e-38
-0.05739712 0.68199998 0.026307013 2.3509886e-38
-0.056201346 0.68199998 0.026307013 2.3509886e-38
-0.054763615 0.67900002 0.026191294 2.3509886e-38
-0.053336397 0.676 0.026075572 2.3509886e-38
-0.051996857 0.67400002 0.025998428 2.3509886e-38
-0.050664317 0.67199999 0.025921278 2.3509886e-38
-0.049412437 0.671 0.025882706 2.3509886e-38
-0.048164066 0.67000002 0.025844134 2.3509886e-38
-0.046849065 0.66799998 0.025766984 2.3509886e-38
-0.045541082 0.66600001 0.02568984 2.3509886e-38
-0.044240102 0.66399997 0.025612691 2.3509886e-38
-0.043011017 0.66299999 0.025574118 2.3509886e-38
-0.041785441 0.662 0.025535546 2.3509886e-38
-0.040563367 0.66100001 0.025496973 2.3509886e-38
-0.039285187 0.65899998 0.025419824 2.3509886e-38
-0.038129739 0.65899998 0.025419824 2.3509886e-38
-0.036918186 0.65799999 0.025381252 2.3509886e-38
-0.035710141 0.65700001 0.025342681 2.3509886e-38
-0.034558199 0.65700001 0.025342681 2.3509886e-38
-0.033304565 0.65499997 0.025265532 2.3509886e-38
-0.03210704 0.65399998 0.025226958 2.3509886e-38
-0.03091302 0.653 0.025188386 2.3509886e-38
-0.029768093 0.653 0.025188386 2.3509886e-38
-0.028623167 0.653 0.025188386 2.3509886e-38
-0.027478239 0.653 0.025188386 2.3509886e-38
-0.026333313 0.653 0.025188386 2.3509886e-38
-0.025188386 0.653 0.025188386 2.3509886e-38
-0.024043459 0.653 0.025188386 2.3509886e-38
-0.022933599 0.65399998 0.025226958 2.3509886e-38
-0.021820232 0.65499997 0.025265532 2.3509886e-38
-0.020671798 0.65499997 0.025265532 2.3509886e-38
-0.019523365 0.65499997 0.025265532 2.3509886e-38
-0.01843104 0.65700001 0.025342681 2.3509886e-38
-0.017305398 0.65799999 0.025381252 2.3509886e-38
-0.016176252 0.65899998 0.025419824 2.3509886e-38
-0.015066394 0.66100001 0.025496973 2.3509886e-38
-0.01392848 0.662 0.025535546 2.3509886e-38
-0.012787059 0.66299999 0.025574118 2.3509886e-38
-0.011642133 0.66399997 0.025612691 2.3509886e-38
-0.01050948 0.66600001 0.02568984 2.3509886e-38
