# .PCD v0.7 - Point Cloud Data file format
VERSION 0.7
FIELDS x y z
SIZE 4 4 4
TYPE F F F
COUNT 1 1 1
WIDTH 1314
HEIGHT 1
VIEWPOINT 0 0 0 1 0 0 0
POINTS 1314
DATA ascii
-0.038163636 0.66851264 -0.064687774
-0.034048237 0.6684705 -0.064707443
-0.030146947 0.66852641 -0.064785056
-0.025752191 0.6687482 -0.065110303
-0.021971688 0.66901052 -0.06582047
-0.017967783 0.66959578 -0.066200651
-0.014107727 0.67059577 -0.065987065
-0.010175286 0.67127734 -0.066331401
-0.0065845293 0.67169315 -0.067295924
-0.05279332 0.67441732 -0.065663606
-0.050659843 0.67352211 -0.064596176
-0.012579965 0.67211181 -0.064268708
-0.009270139 0.67234957 -0.064942285
-0.0057673263 0.67274159 -0.065619856
-0.001888597 0.67339742 -0.065860942
0.0020248482 0.6742 -0.06587629
0.0060649174 0.67496288 -0.066036142
0.0098377792 0.67545766 -0.066762485
0.012564681 0.67569369 -0.067396604
-0.052290574 0.67690742 -0.06681864
-0.05129509 0.67783815 -0.065183036
0.0071016708 0.67616332 -0.064386204
0.010362859 0.67647022 -0.0648764
0.013989158 0.67699087 -0.065777279
0.017973248 0.6780529 -0.065940291
0.021803614 0.67904156 -0.066094577
0.02572877 0.67956215 -0.066984676
0.028647173 0.67978853 -0.067733429
-0.05015621 0.68063092 -0.065015063
0.023294693 0.68038166 -0.0643209
0.0262403 0.68055981 -0.065381952
0.03012033 0.68103343 -0.065999225
0.033977389 0.68174237 -0.066055708
0.037768584 0.682239 -0.066119023
0.041913025 0.68274105 -0.066175759
0.045920841 0.68310273 -0.06654536
0.050068121 0.6832568 -0.067035601
0.0533127 0.6834594 -0.067483805
0.057260126 0.68372089 -0.067771673
0.041575469 0.68410635 -0.064056545
0.046577353 0.68458778 -0.064651266
0.050012864 0.68484807 -0.065172441
0.053852968 0.68545765 -0.065454535
0.057902947 0.68577725 -0.066051848
0.061740234 0.68600804 -0.066618554
0.065940946 0.68650061 -0.066997178
0.070207626 0.68681401 -0.066927753
0.074166991 0.68677121 -0.066563599
0.077140585 0.68734473 -0.065199092
0.059101485 0.68806964 -0.064157113
0.062491611 0.68859148 -0.064478539
0.065838575 0.68909788 -0.064746551
0.06981118 0.68897432 -0.065096885
0.073543392 0.68897766 -0.064647213
0.076697864 0.68837821 -0.064379215
-0.048055258 0.67157191 -0.063928746
-0.045872279 0.67114311 -0.063398466
-0.041731194 0.67069679 -0.0622246
-0.037978482 0.67034048 -0.062134579
-0.034025058 0.67013133 -0.062107872
-0.030044062 0.67023134 -0.061999016
-0.026004521 0.67059338 -0.061960638
-0.022117013 0.67098749 -0.062143754
-0.018225327 0.6712423 -0.062901855
-0.014639705 0.6716243 -0.063479811
-0.01158806 0.67196941 -0.063774593
-0.049259044 0.67418921 -0.062931441
-0.046001676 0.67336351 -0.061498418
-0.042282261 0.67241853 -0.060573991
-0.039110135 0.67207325 -0.060276531
-0.024235724 0.67205024 -0.060043205
-0.021133088 0.67224002 -0.06039853
-0.017625457 0.67254031 -0.060808204
-0.013805125 0.67294097 -0.061622046
-0.010099886 0.67347193 -0.062114064
-0.0061858403 0.67440659 -0.061966751
-0.0020380733 0.67501545 -0.062318556
0.001454209 0.67541456 -0.062886916
0.0049598725 0.67577386 -0.063495182
-0.050154425 0.67788047 -0.062065087
-0.0015413827 0.67628968 -0.060283139
0.0024953561 0.6765185 -0.061220963
0.0059321099 0.67704517 -0.061771393
0.0098964004 0.67791188 -0.061904386
0.01387266 0.67886919 -0.06194016
0.017433256 0.67933267 -0.062935404
0.020746004 0.67982703 -0.063716635
-0.050184432 0.68127942 -0.061869979
0.015030331 0.68012643 -0.060411602
0.018320125 0.68063658 -0.061224982
0.02200334 0.6812641 -0.061969727
0.02603084 0.68224806 -0.061968043
0.030067831 0.68309611 -0.062190946
0.033926278 0.68340445 -0.06292706
0.037583802 0.68373811 -0.063384816
0.040923223 0.68394423 -0.063916549
0.030857839 0.68431354 -0.06042584
0.03426446 0.68463218 -0.061039113
0.038064312 0.68509251 -0.06147936
0.041957203 0.68574852 -0.061701097
0.045942079 0.68638444 -0.062072255
0.049678888 0.68693554 -0.062496167
0.053887054 0.68726659 -0.063304596
0.057102125 0.68769348 -0.063693717
0.047389075 0.68818092 -0.060302403
0.049839996 0.68857718 -0.060622592
0.054145891 0.68942034 -0.061149176
0.058047477 0.6900177 -0.061912686
0.062204558 0.69036913 -0.062803268
0.065884635 0.6909669 -0.062857129
0.070188567 0.69106883 -0.063339703
0.073859565 0.6908536 -0.063068122
0.077179804 0.69054806 -0.061984051
0.059310619 0.69245642 -0.06027535
0.062674105 0.69294339 -0.06068486
0.066094838 0.69322628 -0.060862973
0.069645412 0.69352227 -0.061273724
0.073371492 0.69317561 -0.061200447
0.076332606 0.69280678 -0.060374755
-0.037241399 0.67197877 -0.059896264
-0.034094546 0.67174822 -0.059615005
-0.030461613 0.67172784 -0.059566803
-0.026380684 0.67182219 -0.059698891
-0.045147341 0.67495024 -0.058932237
-0.041761145 0.67423248 -0.058396693
-0.038130391 0.67371553 -0.057845522
-0.033936385 0.67320609 -0.057661142
-0.030063152 0.67314637 -0.057528082
-0.025931364 0.67315668 -0.057799723
-0.022085181 0.67358679 -0.057870399
-0.018011231 0.67419463 -0.057964239
-0.014223919 0.67478395 -0.058169473
-0.010327243 0.67527246 -0.058833584
-0.0064910487 0.67568529 -0.059472132
-0.0033220407 0.67596203 -0.059876099
-0.048721973 0.67870146 -0.05842429
-0.046116691 0.67754012 -0.057333317
-0.042910844 0.67647153 -0.056660213
-0.01641494 0.67603838 -0.05609075
-0.013163925 0.67628402 -0.056391798
-0.009718854 0.67659259 -0.057013635
-0.0058228811 0.67702973 -0.057635553
-0.0019681421 0.67759436 -0.057847906
0.0022114383 0.678307 -0.058067434
0.0058841277 0.6789881 -0.058279559
0.0095275091 0.67944098 -0.05896315
0.012562089 0.67973089 -0.059684571
-0.049741246 0.6823228 -0.057798617
-0.04784118 0.68173766 -0.056082726
0.0039510685 0.68012381 -0.056142632
0.0068383962 0.68033969 -0.056523509
0.01017049 0.68081421 -0.05699835
0.014078505 0.68122429 -0.057969075
0.018077498 0.6822831 -0.058023658
0.02166949 0.68303275 -0.05845008
0.025339834 0.6835649 -0.059252102
-0.052050486 0.6864199 -0.056898322
-0.049746342 0.68526214 -0.057015996
0.022713177 0.68447953 -0.056593493
0.026263002 0.68492806 -0.057378083
0.030146152 0.68559438 -0.057930008
0.034086458 0.68653595 -0.057971679
0.038039275 0.68708962 -0.058587819
0.041770168 0.68740094 -0.059367016
0.044790462 0.6877687 -0.059908208
-0.052419163 0.69058639 -0.056565993
0.03552033 0.68842697 -0.056022219
0.038471371 0.68852079 -0.056743477
0.041999999 0.68899786 -0.057310678
0.045992158 0.68958318 -0.058141232
0.049825344 0.69061548 -0.058310606
0.053703915 0.69122797 -0.059149124
0.057090882 0.69185209 -0.059784316
-0.052881911 0.69455671 -0.057363003
0.050870784 0.69240695 -0.056594454
0.054389071 0.69320756 -0.05726856
0.058064923 0.69408596 -0.057709284
0.061845589 0.69454741 -0.058512866
0.065850921 0.69503677 -0.059320927
0.069681838 0.69552219 -0.059507724
0.073682532 0.69496948 -0.059466839
-0.053058397 0.69839668 -0.057235956
0.059164193 0.69644076 -0.056195866
0.062307552 0.69680947 -0.056793284
0.066004731 0.6971423 -0.057575841
0.06958925 0.69757754 -0.057631303
0.07244125 0.69741011 -0.057413261
-0.053198602 0.70253778 -0.056992628
-0.053442594 0.70468032 -0.056962438
-0.041261893 0.67587197 -0.055880513
-0.03758008 0.67554051 -0.055368282
-0.034001544 0.67522949 -0.054911301
-0.030029202 0.67510194 -0.054707009
-0.025950694 0.67511076 -0.054821532
-0.022218186 0.67536885 -0.055023078
-0.01856301 0.67568362 -0.055468913
-0.015830804 0.6758303 -0.055627376
-0.045048371 0.67905205 -0.055017833
-0.041787513 0.67814451 -0.054130718
-0.038273003 0.67732453 -0.053490639
-0.034275718 0.67678756 -0.053009056
-0.029942002 0.67657655 -0.052765623
-0.025974127 0.67657185 -0.052792232
-0.021919154 0.67673969 -0.053150777
-0.017932262 0.67723304 -0.053582996
-0.014249576 0.67757231 -0.054109201
-0.010000298 0.67839593 -0.054206382
-0.0060489313 0.67900842 -0.05451332
-0.0021691124 0.67931896 -0.055146769
0.0016172921 0.67976129 -0.055515006
-0.04885808 0.68279392 -0.055233434
-0.046021964 0.68198043 -0.05349217
-0.043018706 0.6805858 -0.052558944
-0.0093068238 0.68019056 -0.052098326
-0.0056227697 0.68048441 -0.052534211
-0.0018234549 0.68080962 -0.053058334
0.002226118 0.68124241 -0.053573247
0.0062147561 0.68191981 -0.053929895
0.0096501224 0.68260062 -0.054054361
0.01378997 0.68316782 -0.054684214
0.017498616 0.68361163 -0.055426866
-0.049343985 0.68597317 -0.054274976
-0.04709205 0.68489784 -0.053107481
0.011236086 0.68429762 -0.052305117
0.014396802 0.68454093 -0.052850679
0.018129496 0.68498462 -0.053610388
0.021985143 0.68589443 -0.053852793
0.025784181 0.68675339 -0.054161653
0.029736165 0.68729985 -0.054975517
0.033113644 0.68776917 -0.055585373
-0.052257348 0.69183028 -0.055425484
-0.050702009 0.6898647 -0.053212605
0.026849261 0.6882596 -0.052497681
0.030296873 0.68882215 -0.053075645
0.034025513 0.68943185 -0.053813666
0.037897762 0.69032931 -0.054076336
0.041403227 0.69086158 -0.054688375
0.045312278 0.69152212 -0.055420142
-0.052349523 0.69448602 -0.054173533
-0.051731236 0.69349885 -0.052632939
0.039077867 0.69215059 -0.052397415
0.042290084 0.69279188 -0.052859329
0.045993853 0.69328034 -0.053723402
0.050090913 0.69433212 -0.054081716
0.053794272 0.69496137 -0.054927569
0.057762809 0.69555181 -0.055573806
-0.052943207 0.69800842 -0.053507913
0.050821487 0.69635886 -0.052416112
0.054028414 0.69703865 -0.053112734
0.058010194 0.69805932 -0.0537811
0.06190297 0.69863397 -0.054816961
0.065049 0.6993475 -0.055214323
0.070064239 0.69962978 -0.055439759
0.07244096 0.69932222 -0.055278264
-0.053816915 0.70180362 -0.053716891
0.059352092 0.70029718 -0.052331194
0.062497281 0.70102799 -0.052796215
0.06573119 0.7012189 -0.053381313
0.069577336 0.70119768 -0.053504247
0.072991304 0.70073539 -0.052725684
-0.054868806 0.70560479 -0.053307086
-0.056155242 0.70832282 -0.052047998
0.037710056 0.72741747 -0.053311083
0.038195368 0.73007464 -0.053436544
0.038508166 0.73301578 -0.053158168
-0.040420398 0.67992812 -0.051432017
-0.037727896 0.67921698 -0.051094465
-0.03391185 0.67876172 -0.050470747
-0.029795887 0.67853367 -0.05016052
-0.026105801 0.6785363 -0.050119326
-0.022126332 0.67868423 -0.050451841
-0.018160686 0.67911285 -0.050879695
-0.014146358 0.67955548 -0.051354233
-0.011508408 0.67986333 -0.051647577
-0.04477999 0.68326879 -0.051149163
-0.041910153 0.68212479 -0.050119001
-0.038179263 0.6810267 -0.049303651
-0.0343014 0.68046385 -0.048598573
-0.03004548 0.68017781 -0.048298288
-0.025947148 0.68023211 -0.048173375
-0.02174213 0.68040782 -0.048557173
-0.018006247 0.68073547 -0.048896182
-0.013932171 0.6811251 -0.04950311
-0.0099367769 0.68162262 -0.049826875
-0.0061612208 0.68222141 -0.049998078
-0.0021176124 0.68279564 -0.050291434
0.0021589664 0.68312901 -0.050972436
0.0057528527 0.68359804 -0.05142913
0.0087613938 0.68386167 -0.051870801
-0.048535459 0.68722469 -0.051105257
-0.045961276 0.68572509 -0.049937017
-0.043249223 0.684569 -0.048654184
-0.0049201916 0.68416196 -0.048331708
-0.0014733362 0.6843949 -0.048442114
0.0022810516 0.6847983 -0.048917882
0.006289002 0.68513829 -0.049516127
0.0099460362 0.68556917 -0.049915101
0.014133138 0.68649316 -0.049824983
0.018031616 0.68701363 -0.050383687
0.021743018 0.68743235 -0.05133491
0.024523184 0.68797231 -0.051357739
-0.049274076 0.69031912 -0.049995381
-0.047317021 0.68869442 -0.048592594
0.018508479 0.68836552 -0.048609894
0.02232918 0.68895864 -0.049319107
0.026041541 0.6896354 -0.049988404
0.029918309 0.69073778 -0.050205067
0.033775903 0.69132698 -0.051034618
0.036751971 0.6917538 -0.05157565
-0.052014347 0.69557512 -0.050194487
-0.051181965 0.69422269 -0.049709279
0.030858781 0.69240147 -0.048483171
0.034163408 0.69284755 -0.049225289
0.037850715 0.69352108 -0.049989041
0.041830879 0.69468731 -0.050356105
0.045493636 0.69522518 -0.051177014
0.04863717 0.69576412 -0.051935147
-0.052734926 0.69819415 -0.049881257
-0.05183379 0.69642979 -0.049564909
0.042766996 0.69663996 -0.048616793
0.046110135 0.69744897 -0.049263351
0.049880266 0.69810593 -0.050285932
0.053848788 0.69904798 -0.051126223
0.057423722 0.69978362 -0.051867396
-0.054154724 0.70197558 -0.049977731
0.050746776 0.70054489 -0.048526496
0.05449678 0.70181769 -0.049101591
0.057898071 0.70207876 -0.050224405
0.061427388 0.70259202 -0.050977696
0.065766826 0.70322084 -0.051095877
0.070069045 0.70278066 -0.050820783
0.072974071 0.70181167 -0.05052422
-0.056164648 0.70713329 -0.049583163
-0.055311855 0.70522314 -0.050020788
0.058439672 0.7043795 -0.048373856
0.06166574 0.7047441 -0.049037099
0.065349951 0.70434421 -0.049829792
0.068990238 0.70406896 -0.04925099
-0.057336237 0.70970857 -0.049496554
-0.059172995 0.71291137 -0.048517667
0.037113607 0.72775471 -0.051004283
0.041072894 0.72714919 -0.051065229
0.035572339 0.72991401 -0.049535546
0.036716968 0.73029804 -0.049997073
0.035836015 0.73324555 -0.04859576
0.03666164 0.73451948 -0.049734347
0.035486601 0.73887527 -0.048578732
0.03632994 0.73659474 -0.048879437
0.034661196 0.7411114 -0.048296016
-0.040521659 0.68363363 -0.04768952
-0.037505012 0.68297774 -0.046871595
-0.033886846 0.68238419 -0.04621828
-0.029900476 0.68204331 -0.045918513
-0.026012996 0.68184352 -0.046113983
-0.021878501 0.68224758 -0.046102062
-0.018067533 0.68270993 -0.046283297
-0.014184041 0.68303311 -0.046858158
-0.010280198 0.68344277 -0.047329288
-0.0068124509 0.68376023 -0.047699697
-0.044735566 0.68711752 -0.047064498
-0.041873392 0.6859839 -0.04605376
-0.038218737 0.6849488 -0.045112915
-0.034477673 0.68425614 -0.044374134
-0.031084219 0.68400264 -0.044174522
-0.021359473 0.68427068 -0.044147097
-0.017459828 0.68444109 -0.044459421
-0.014085637 0.68472201 -0.044887677
-0.010011334 0.68503439 -0.045479611
-0.0058945711 0.68555176 -0.045788571
-0.0020289528 0.6862098 -0.045983166
0.0019947954 0.68674803 -0.046363078
0.0060393261 0.68708861 -0.046783578
0.0097411592 0.68741012 -0.047251664
0.013099985 0.68777966 -0.047571398
-0.048525345 0.69115925 -0.047231976
-0.045908477 0.68968207 -0.045727689
-0.043365456 0.68857485 -0.044436079
-0.00078109361 0.68816531 -0.044079393
0.00211713 0.68839455 -0.04437571
0.0058642821 0.68863112 -0.044771567
0.0099770101 0.68894315 -0.045206338
0.013950571 0.68923455 -0.045831159
0.017995169 0.68996394 -0.046110339
0.021814816 0.69075209 -0.046451956
0.02540328 0.69136906 -0.047195882
0.028013006 0.69174445 -0.047876038
-0.049586643 0.69399613 -0.045999445
-0.047680724 0.69249916 -0.044977821
0.022666482 0.69242954 -0.044616479
0.026542587 0.69310826 -0.04549823
0.030113274 0.69395167 -0.045991916
0.033696283 0.69485694 -0.04639148
0.03734684 0.69547498 -0.04732585
-0.052537918 0.69903195 -0.046057653
-0.051224448 0.69701374 -0.045472488
0.034472022 0.69655764 -0.044708397
0.038275801 0.69721544 -0.045789339
0.041775573 0.69832063 -0.046312694
0.045332909 0.69926935 -0.047111038
0.048234217 0.69974005 -0.04795669
-0.053957175 0.70187616 -0.045777809
0.043069933 0.70054573 -0.044705488
0.046207774 0.7016139 -0.045352597
0.049615759 0.70226437 -0.046517577
0.053286161 0.70330185 -0.04736539
-0.056363497 0.70703459 -0.045855418
-0.055491045 0.7051959 -0.046400636
0.050499648 0.70496035 -0.044661138
0.053496294 0.70521796 -0.045785751
0.057661664 0.70522124 -0.047346573
0.060210053 0.70603758 -0.047589611
-0.057787001 0.70988214 -0.045646526
-0.060232211 0.71443504 -0.046246964
-0.059390891 0.71297067 -0.045710348
0.047051381 0.72246039 -0.045834441
0.043611433 0.72628748 -0.047113553
0.045005638 0.72456533 -0.045935541
0.035656109 0.73034096 -0.047807951
0.037527163 0.73078793 -0.046668816
0.040822256 0.72912842 -0.045897216
0.035511684 0.73480946 -0.046030991
0.036785293 0.73324519 -0.045748573
0.034856457 0.73786795 -0.046117425
0.033676326 0.74122947 -0.046106443
-0.032405049 0.68397379 -0.043841951
-0.029386071 0.68379682 -0.043757457
-0.026162028 0.68368673 -0.043695576
-0.022671193 0.68375039 -0.043864027
-0.040706303 0.68759364 -0.043544188
-0.037807278 0.6868394 -0.042809106
-0.033960268 0.6861915 -0.042027529
-0.029997716 0.68572134 -0.041803721
-0.026186269 0.68558794 -0.041861702
-0.021932321 0.685848 -0.041891731
-0.01806166 0.68635613 -0.041951239
-0.014212264 0.68660855 -0.042549495
-0.010125991 0.68710226 -0.042838823
-0.0062124818 0.68744975 -0.043342769
-0.0029164718 0.68780363 -0.043751318
-0.044767119 0.69099367 -0.042964451
-0.042110413 0.68999374 -0.041941065
-0.03851597 0.68891567 -0.040946368
-0.035174794 0.68821663 -0.040346522
-0.016638588 0.68810159 -0.040421668
-0.013703031 0.68834186 -0.04059368
-0.0097060353 0.68871051 -0.040931609
-0.0058268942 0.68905735 -0.041420843
-0.0018757549 0.68946224 -0.04192809
0.0019851902 0.69018883 -0.041940596
0.0060236854 0.6906786 -0.042070232
0.0098943468 0.69096702 -0.042468041
0.013809984 0.69122696 -0.043022715
0.017474579 0.69172567 -0.043455329
-0.048637811 0.69500387 -0.042729046
-0.046241708 0.6937083 -0.041543998
-0.04368474 0.6926012 -0.040288739
0.0036107705 0.69204772 -0.040116146
0.006935881 0.69222379 -0.040242687
0.010087009 0.69248962 -0.040508315
0.014046411 0.69287509 -0.040990289
0.018105341 0.69328779 -0.041731346
0.021917403 0.69416761 -0.042007834
0.025772363 0.69495147 -0.042655837
0.029031925 0.69552147 -0.043367412
-0.052351061 0.69969344 -0.043295663
-0.050206613 0.69800895 -0.041564371
-0.047712624 0.69610637 -0.040848315
0.023583449 0.69613904 -0.040305901
0.026442155 0.69672507 -0.040758014
0.030281648 0.69731104 -0.041703433
0.033563934 0.69815576 -0.042193022
0.037489083 0.69911766 -0.04315193
-0.053200778 0.70201832 -0.041952975
-0.051614143 0.70048225 -0.040848143
0.035106733 0.7004438 -0.040413037
0.038299352 0.7012291 -0.041294701
0.041905578 0.70216519 -0.042432174
0.044963669 0.7033034 -0.043091524
-0.056476295 0.70739979 -0.042359311
-0.05511326 0.70532006 -0.04173252
0.042645827 0.70458293 -0.040566616
0.046266951 0.70585483 -0.041578747
0.049440537 0.70648021 -0.042720024
0.053025804 0.70753396 -0.043572657
-0.057697799 0.70999467 -0.041818425
0.047349401 0.70831507 -0.040178217
0.049887087 0.70916319 -0.040886324
0.053246927 0.70983118 -0.041518427
-0.060634855 0.71513003 -0.041787479
-0.059366323 0.71297765 -0.041896995
0.053213403 0.71233547 -0.040055707
-0.062477365 0.71798718 -0.041223545
0.047509376 0.71940821 -0.040320136
-0.065602548 0.72197533 -0.040268376
0.045879576 0.72213608 -0.041936696
0.042851832 0.72735131 -0.042846352
0.041184485 0.73037374 -0.040477075
0.038125113 0.7337454 -0.042731445
0.034807123 0.738437 -0.042123102
0.037176043 0.73627353 -0.04081028
0.03167763 0.74265504 -0.041925434
0.032844581 0.74100184 -0.042117637
0.030639281 0.74563807 -0.040913776
0.030018037 0.75006062 -0.041728485
0.029125014 0.75341946 -0.040922277
-0.032870047 0.68779254 -0.039853081
-0.030037919 0.68764925 -0.039602835
-0.026208643 0.68758285 -0.039564759
-0.022523051 0.6876865 -0.039593115
-0.019427979 0.68769646 -0.039797414
-0.040912915 0.69156629 -0.039304275
-0.037710395 0.69071442 -0.038523115
-0.033833526 0.68972927 -0.03809252
-0.02993297 0.68938994 -0.037730094
-0.026122086 0.68948859 -0.037536427
-0.02206617 0.68934935 -0.03783907
-0.017961444 0.68966705 -0.037989624
-0.014062447 0.69020319 -0.038030118
-0.0099835638 0.69074005 -0.038198609
-0.0059597366 0.69104487 -0.038740307
-0.0022885005 0.69141591 -0.039188404
0.001563083 0.69178045 -0.039677739
-0.04517198 0.69487524 -0.038877636
-0.042139206 0.69374835 -0.037774026
-0.038527418 0.6927799 -0.036719177
-0.034976713 0.6921345 -0.036085963
-0.009764866 0.69226122 -0.036243208
-0.0057740933 0.69255883 -0.036751576
-0.0017195048 0.69293511 -0.037299018
0.0020986812 0.69326752 -0.037746996
0.0059574703 0.69365913 -0.038011286
0.0099933241 0.69428486 -0.038070962
0.013881459 0.69483757 -0.038335316
0.017803907 0.69528228 -0.039068669
0.020877967 0.69567019 -0.039681423
-0.049000192 0.69882601 -0.038579945
-0.046397164 0.69727844 -0.037419759
-0.043952115 0.69610721 -0.036527943
0.011256574 0.69621623 -0.036039263
0.014328984 0.696356 -0.036540378
0.018270262 0.6969651 -0.037143767
0.022171484 0.69768167 -0.03781493
0.025843784 0.69854963 -0.038241945
0.029678859 0.69921356 -0.039097153
0.032745995 0.69976187 -0.039787803
-0.052616134 0.70301574 -0.038519681
-0.050539024 0.70120245 -0.037705351
0.026746646 0.70043224 -0.036450963
0.030363372 0.70109016 -0.037203241
0.03394096 0.70200402 -0.03803549
0.037535809 0.7029413 -0.039074723
0.04037236 0.70374233 -0.039955489
-0.056120902 0.70779932 -0.03914405
-0.054245032 0.70570803 -0.037848257
0.035468381 0.70426637 -0.036476072
0.038300969 0.70523715 -0.037244253
0.041817557 0.70644522 -0.038342927
0.04484982 0.70731175 -0.039499074
0.049299635 0.70728076 -0.039995879
-0.057254426 0.71019828 -0.038056325
-0.055911586 0.70867985 -0.037248921
0.042845905 0.70904797 -0.036709413
0.045904964 0.70987898 -0.038051169
0.049303386 0.71071619 -0.039094809
-0.060401265 0.71532339 -0.038092591
-0.059085909 0.71327358 -0.037880026
0.046290036 0.71319312 -0.036579948
0.049718466 0.71393967 -0.037449598
0.052792527 0.71401548 -0.038923431
-0.062301062 0.71802586 -0.037769336
0.046418574 0.71803856 -0.037040174
0.048683345 0.71733153 -0.037539661
-0.065397173 0.72168112 -0.037884723
-0.063911691 0.72005284 -0.036466528
0.043484349 0.72328275 -0.036870286
0.045396436 0.72140127 -0.037752613
-0.069639973 0.72472948 -0.036940891
0.043228526 0.72500092 -0.037649304
0.041027278 0.73037159 -0.036878917
0.038984269 0.73399419 -0.037911601
0.040231213 0.73213881 -0.038250409
0.035777479 0.73915958 -0.038380377
0.036748808 0.73816985 -0.037155151
0.031992033 0.74372208 -0.037148807
0.033862304 0.74142545 -0.038027938
0.030526532 0.74604005 -0.038224816
0.032334398 0.74441975 -0.036972519
0.029030662 0.74966794 -0.037920147
0.027557051 0.75394988 -0.03742611
0.028173834 0.7537536 -0.03877477
0.026152609 0.75801718 -0.037218694
0.023877177 0.7634905 -0.036750231
0.024836872 0.76173866 -0.03745443
-0.03317298 0.69174463 -0.035537548
-0.029927256 0.69141215 -0.035412688
-0.025844054 0.6914193 -0.035256036
-0.02198128 0.69143736 -0.035379309
-0.018051721 0.69160098 -0.03547598
-0.014297515 0.69180733 -0.035726435
-0.040945411 0.69528502 -0.035186712
-0.037907086 0.69451654 -0.034366082
-0.034101769 0.69362509 -0.033841126
-0.030020565 0.6932292 -0.033385977
-0.02606008 0.69304299 -0.03334938
-0.022063676 0.69311976 -0.03336186
-0.017946165 0.69321001 -0.033510428
-0.014019823 0.69347519 -0.03373082
-0.010074813 0.6938327 -0.033994202
-0.0059574866 0.69445539 -0.034103647
-0.0022785051 0.69484586 -0.034499638
0.0020131879 0.69520473 -0.035018787
0.0058341851 0.69553399 -0.035383496
0.0086087501 0.69587946 -0.035585891
-0.045488503 0.69882363 -0.034662068
-0.042279392 0.69755173 -0.03361693
-0.038902003 0.69661903 -0.03265015
-0.0050891717 0.69623119 -0.032083895
-0.0017343482 0.6964283 -0.032444991
0.0023327989 0.69675672 -0.032938842
0.0062586344 0.69701737 -0.033515316
0.010037096 0.69747704 -0.033868358
0.013929201 0.69833368 -0.033960056
0.017737208 0.698901 -0.034602866
0.021480437 0.69944507 -0.035379674
-0.049391888 0.70250696 -0.034399897
-0.046505887 0.70099801 -0.033233456
-0.043810342 0.70004058 -0.032015037
0.015173457 0.70014489 -0.03222486
0.01842387 0.70076919 -0.032697961
0.022192383 0.70133984 -0.033431519
0.025974404 0.70207286 -0.034109131
0.029711567 0.70285624 -0.034898981
0.032469697 0.70345449 -0.035461172
-0.053223416 0.70663923 -0.034293696
-0.050938256 0.70502424 -0.033199817
0.027309448 0.7043305 -0.032258313
0.030459268 0.70500362 -0.032982435
0.033992626 0.705778 -0.03411945
0.037297376 0.70704073 -0.034880824
-0.056643888 0.71107227 -0.03429183
-0.054878123 0.70923102 -0.033491705
0.03522379 0.70838881 -0.032391977
0.038395163 0.70965523 -0.033227649
0.041593321 0.7104609 -0.034697872
0.044534303 0.71135944 -0.035535503
-0.060269404 0.71573639 -0.035015564
-0.058470912 0.71382046 -0.0337172
0.039670371 0.71212399 -0.032488834
0.042343114 0.71384102 -0.03339313
0.04524444 0.71406931 -0.035215955
-0.061941966 0.71810514 -0.03395503
0.043041259 0.71784592 -0.032907568
0.04509512 0.71750629 -0.034554567
-0.065586217 0.7219578 -0.033825934
-0.063883953 0.72031564 -0.033078
0.042937446 0.72212648 -0.03371178
0.044605561 0.72080559 -0.035415873
-0.0728743 0.72625941 -0.03235314
-0.069925591 0.72498828 -0.033750076
0.041591823 0.725779 -0.033672955
0.039838184 0.73178399 -0.033908159
0.040916137 0.72959703 -0.034816422
0.038632445 0.734245 -0.033751223
0.035721961 0.739842 -0.032860268
0.03676172 0.73818958 -0.033628456
0.034640681 0.74186218 -0.03406179
0.031488504 0.74661678 -0.034280665
0.032861199 0.74485803 -0.03390146
0.029528908 0.75018692 -0.034438115
0.027227813 0.7546466 -0.035204776
0.028391436 0.75338542 -0.033052571
0.026151445 0.75827008 -0.03400325
0.023881655 0.7621901 -0.035820954
0.024573356 0.76149702 -0.034140207
0.023177853 0.76475358 -0.033327132
-0.033358995 0.69555396 -0.031460501
-0.029934132 0.69514483 -0.031235106
-0.026032083 0.69507265 -0.030912634
-0.021988964 0.69505262 -0.030883309
-0.017947927 0.69511998 -0.030993424
-0.01411289 0.6953671 -0.031138703
-0.010314036 0.69556683 -0.031532161
-0.0073037972 0.69585317 -0.031652313
-0.041281458 0.69908732 -0.031195121
-0.037976611 0.69830036 -0.030261237
-0.034141973 0.69748116 -0.029657668
-0.030042093 0.6970222 -0.029176904
-0.02621018 0.69684309 -0.028919827
-0.022025051 0.69668895 -0.028951097
-0.017788263 0.69675171 -0.028972628
-0.013957303 0.69686431 -0.029219339
-0.0099831829 0.69718111 -0.029471794
-0.0060153948 0.69746459 -0.029992141
-0.0019172074 0.69821531 -0.030012367
0.0019200637 0.69874555 -0.030218195
0.005829032 0.69908011 -0.03074478
0.0097303381 0.69950533 -0.031238684
0.0125801 0.69979745 -0.031717077
-0.048568524 0.70380056 -0.031935364
-0.045667246 0.70259911 -0.030548258
-0.042413656 0.70132834 -0.029604945
-0.038732789 0.70037258 -0.028441137
-1.3777499e-05 0.7000854 -0.028532345
0.002311701 0.70039856 -0.02842479
0.0063772416 0.70075256 -0.028843412
0.010169266 0.70116299 -0.02941126
0.013863819 0.70166087 -0.029965485
0.017773882 0.70253134 -0.030298149
0.021579769 0.70323795 -0.030905105
0.0247417 0.7037133 -0.031646881
-0.052305479 0.70735866 -0.031867173
-0.04970032 0.7063306 -0.030145064
-0.046795703 0.70485121 -0.029076794
0.018438043 0.70428735 -0.028569864
0.022202617 0.70509136 -0.029143851
0.026055055 0.70592147 -0.030001795
0.029631561 0.70678139 -0.030794133
0.032801621 0.70766371 -0.031674366
-0.053469114 0.71014476 -0.030168911
-0.051138032 0.70876646 -0.028906094
0.027111035 0.70825791 -0.028294338
0.030349629 0.7093026 -0.028969361
0.03387462 0.71020305 -0.030116431
0.03719056 0.71101618 -0.031332206
-0.057420615 0.71440971 -0.030183131
-0.05515359 0.71281987 -0.02901163
0.034721732 0.71278107 -0.028624674
0.037944913 0.71389675 -0.029900059
0.040564194 0.7146343 -0.031387523
-0.061276432 0.71848089 -0.030046955
-0.059262134 0.71680212 -0.029282674
0.039089035 0.71767706 -0.028903112
0.041104138 0.71801627 -0.030648289
-0.06579785 0.72265154 -0.029806953
-0.063232251 0.72049451 -0.029876392
0.039539032 0.72208709 -0.028377693
0.041034892 0.72184658 -0.030179204
-0.072875783 0.72671092 -0.029605309
-0.069820613 0.72539043 -0.029815428
-0.067373402 0.72400653 -0.028537124
0.039498422 0.72650898 -0.028955862
0.040556014 0.7256009 -0.030730195
0.038745604 0.72953153 -0.029278256
0.040056061 0.72820467 -0.031456992
0.037644807 0.73327589 -0.029355587
0.035644077 0.73967409 -0.029932618
0.036551163 0.73767114 -0.030467058
0.034582343 0.74195874 -0.029908767
0.0328077 0.74594116 -0.030123318
0.030926423 0.74998569 -0.030693801
0.029196868 0.75415766 -0.03023126
0.027097994 0.75875139 -0.030732539
0.028523574 0.75706279 -0.029558349
0.025434205 0.76254797 -0.030469263
0.023315385 0.76663369 -0.030141231
0.024519458 0.76547885 -0.028866282
0.021782562 0.76893765 -0.030407613
0.018168233 0.77405399 -0.028457157
0.016077738 0.77623653 -0.028522991
-0.036360137 0.69966918 -0.027794085
-0.033631388 0.69936633 -0.027411722
-0.029919559 0.69900513 -0.026982376
-0.025978269 0.6987918 -0.026650028
-0.022009715 0.69867587 -0.026559785
-0.018179921 0.69864213 -0.02661318
-0.014091381 0.69885856 -0.026679289
-0.010082234 0.69909865 -0.02697097
-0.0061464817 0.69940996 -0.027384385
-0.0030395167 0.69974971 -0.02768803
-0.041527953 0.70312834 -0.02707253
-0.037753474 0.70216638 -0.026123531
-0.034162022 0.70155215 -0.025433999
-0.030053949 0.70094591 -0.024988791
-0.026145205 0.70065552 -0.024656139
-0.022191165 0.70046806 -0.024555124
-0.018245164 0.7004618 -0.024513872
-0.01394696 0.700625 -0.024636246
-0.0098442193 0.70084018 -0.024910249
-0.0058654044 0.70112199 -0.025460942
-0.0018055899 0.70164555 -0.02579494
0.0019243577 0.7021718 -0.026060462
0.0058971276 0.70264417 -0.0264754
0.0097613595 0.70318246 -0.026941899
0.013474959 0.70366502 -0.027451782
-0.04857716 0.70761681 -0.027646115
-0.045684602 0.70645791 -0.02655123
-0.042465393 0.70550072 -0.025359811
-0.039116208 0.70459026 -0.024451153
0.0035050993 0.70413083 -0.024276728
0.006330024 0.70453244 -0.024548873
0.010117303 0.70508164 -0.025040358
0.013945873 0.70564854 -0.025547229
0.017819582 0.70610929 -0.02639039
0.021626402 0.70696521 -0.027019136
0.024705913 0.70758414 -0.027723134
-0.052552756 0.71143669 -0.02715987
-0.049849309 0.71019512 -0.026117848
-0.046812579 0.70891899 -0.024936287
0.018806543 0.70853448 -0.024392335
0.022206763 0.70944005 -0.025036994
0.025973994 0.7102443 -0.026037455
0.029566655 0.71096116 -0.02719878
-0.056496259 0.71531892 -0.027247299
-0.054197419 0.71412593 -0.025916049
-0.05131999 0.71267986 -0.02468982
0.026843563 0.71281016 -0.024473675
0.030158011 0.71374726 -0.025502311
0.033685356 0.71440506 -0.026963938
0.036490217 0.71569866 -0.02769669
-0.060527153 0.71924084 -0.026650203
-0.058012187 0.71766865 -0.025680019
-0.055529166 0.7162568 -0.02477671
0.031557269 0.71663207 -0.024407221
0.034234386 0.71780318 -0.025282998
0.037289165 0.71841657 -0.02696389
-0.065259069 0.72322929 -0.02609114
-0.062427428 0.72119105 -0.025826428
0.035226513 0.72106439 -0.02443696
0.037839137 0.72200072 -0.026263133
0.040778216 0.720882 -0.02771447
-0.072923392 0.72750056 -0.026489172
-0.069774762 0.72616267 -0.025776859
-0.06717366 0.72468609 -0.025462009
0.035924438 0.72411293 -0.0241511
0.037835974 0.72591382 -0.026123665
-0.076269254 0.72953397 -0.024071379
-0.074457616 0.72846866 -0.025210274
0.035793733 0.73133028 -0.024292143
0.037124064 0.73002142 -0.026093535
0.035505921 0.73457122 -0.025368985
0.036532972 0.73301369 -0.026703155
0.034686457 0.73821014 -0.025489125
0.036302071 0.73666507 -0.02767049
0.033913214 0.74163574 -0.025522055
0.032644667 0.74638766 -0.026070386
0.031394143 0.75047421 -0.026376642
0.030422302 0.75372428 -0.02665394
0.025205433 0.76609778 -0.02612772
0.022708816 0.76967281 -0.026186796
0.024233639 0.76835763 -0.024809249
0.019016545 0.77458149 -0.026694793
0.020849215 0.7728793 -0.025878975
0.015035052 0.77842176 -0.027320486
0.018071288 0.77741557 -0.025200907
0.016689779 0.78014904 -0.024903115
0.013277188 0.78496748 -0.024652328
-0.033433408 0.70334864 -0.023404265
-0.029747657 0.70288342 -0.022975598
-0.025904197 0.70258254 -0.022618938
-0.021868404 0.70251578 -0.022339823
-0.01792063 0.70244873 -0.022351874
-0.01410002 0.70260197 -0.02242052
-0.0099727809 0.70282453 -0.022706235
-0.0061268923 0.70316154 -0.023039006
-0.002215598 0.70352542 -0.023476547
0.00014783473 0.70378757 -0.023611316
-0.041368213 0.70717913 -0.023203822
-0.03772983 0.70624197 -0.022368612
-0.03408172 0.70569998 -0.021612231
-0.03017184 0.70525134 -0.020954741
-0.026237886 0.7046845 -0.020694889
-0.022068134 0.70449424 -0.020452889
-0.017951868 0.70438522 -0.020426372
-0.013895388 0.70451593 -0.020512713
-0.0098320376 0.70481241 -0.020719623
-0.0058871107 0.70506126 -0.02117905
-0.0019367373 0.7054584 -0.021553945
0.0020024015 0.7058956 -0.021990547
0.006010307 0.70650369 -0.022396203
0.009908109 0.70690989 -0.023056231
0.013523814 0.70746648 -0.023530614
-0.048731931 0.71161079 -0.023725506
-0.045605864 0.71051484 -0.022627911
-0.042129055 0.70945573 -0.021635488
-0.03857578 0.70872861 -0.020608295
-0.035068642 0.7080586 -0.020250758
0.0026747719 0.70811665 -0.020118494
0.0065605845 0.70865715 -0.020511718
0.010355121 0.70905793 -0.021185938
0.014111403 0.70983332 -0.021689119
0.017994221 0.71040034 -0.022559375
0.021351092 0.71113127 -0.023285924
0.024407705 0.71189976 -0.023902144
-0.053005721 0.7152676 -0.023332553
-0.049880143 0.71408379 -0.022018375
-0.046517454 0.71298575 -0.020897569
-0.043930899 0.7122367 -0.02006628
0.015818881 0.7123732 -0.020275427
0.018485969 0.71296966 -0.020749424
0.022223875 0.71381384 -0.021684077
0.025599344 0.71443826 -0.022760952
0.028929541 0.71549368 -0.023694322
-0.057215292 0.71896297 -0.022705231
-0.054201361 0.71750689 -0.021718284
-0.051209953 0.71646357 -0.020518973
0.023347382 0.7166667 -0.020316895
0.026113477 0.71774966 -0.020981828
0.029813405 0.71799833 -0.022722941
0.032770798 0.71927035 -0.023622317
-0.06444627 0.72369039 -0.023212476
-0.06159563 0.72245681 -0.022038359
-0.058436103 0.72089916 -0.02124366
-0.055819739 0.7200073 -0.020216722
0.02749107 0.72028959 -0.020309098
0.030213594 0.72157586 -0.021120138
0.033723999 0.7219969 -0.023018526
-0.068980485 0.72710264 -0.022143338
-0.066100851 0.72557104 -0.021708211
-0.063202396 0.72431147 -0.020548124
0.031541575 0.72558898 -0.020471297
0.033838104 0.72595793 -0.022049548
0.036268555 0.72620094 -0.023901669
-0.07713598 0.73103178 -0.021866104
-0.073899381 0.7297352 -0.02187966
-0.070873395 0.72865295 -0.021146281
0.03197382 0.72893298 -0.020057797
0.034071799 0.73004931 -0.021944366
-0.081222333 0.73262906 -0.020514345
-0.078531474 0.73214614 -0.02058785
0.033849444 0.73371744 -0.021880569
0.033390369 0.73809379 -0.022178859
0.032695845 0.74150443 -0.021970751
0.03163882 0.74629045 -0.021423496
0.032377973 0.74472654 -0.022795692
0.031342126 0.74930227 -0.02173938
0.029222637 0.75835526 -0.020182209
0.02755734 0.76383561 -0.020317305
0.026234001 0.7661165 -0.021779587
0.023599148 0.77084631 -0.022306066
0.024619939 0.76927489 -0.02167608
0.021659978 0.77424204 -0.022197044
0.019633014 0.77647674 -0.023737628
0.020842116 0.7776435 -0.020973459
0.015410562 0.78392971 -0.023814617
0.017783739 0.78175294 -0.022277713
0.013582289 0.78678751 -0.023867657
-0.03310306 0.7075941 -0.019600879
-0.029768353 0.70710689 -0.019235646
-0.025988949 0.7066949 -0.018820329
-0.022130264 0.70649171 -0.018590041
-0.018095821 0.70635408 -0.018593812
-0.014098149 0.70660073 -0.018530164
-0.010077227 0.70671976 -0.018843608
-0.0062253322 0.70704353 -0.019134369
-0.002307886 0.70751619 -0.019360453
0.00081999588 0.70776492 -0.019682067
-0.041273549 0.7113595 -0.019530579
-0.037779365 0.71055532 -0.018754886
-0.033961497 0.71000886 -0.017984672
-0.03008781 0.7096054 -0.017260531
-0.026197117 0.70904517 -0.016911794
-0.021908358 0.70888728 -0.01658285
-0.017885415 0.70872653 -0.016590718
-0.014054069 0.70889914 -0.016561521
-0.009823557 0.70902658 -0.01687249
-0.0060010091 0.70936233 -0.017086508
-0.001946356 0.70977598 -0.017447699
0.0020627289 0.71020269 -0.017952325
0.0058328342 0.71048903 -0.018680697
0.0097788777 0.71103477 -0.019282401
0.013068513 0.71178591 -0.019720832
-0.04878176 0.71559048 -0.019657914
-0.045674101 0.71474451 -0.018791247
-0.042018119 0.71389371 -0.017786955
-0.038182493 0.71315485 -0.016877091
-0.034346744 0.71234161 -0.016311472
0.0026263292 0.71245277 -0.016329195
0.0062306821 0.71316779 -0.016694268
0.010038351 0.71380907 -0.017320167
0.013831972 0.71398002 -0.018373357
0.017645888 0.71476936 -0.019145841
0.020631336 0.71559376 -0.019779438
-0.053528056 0.7191717 -0.019268153
-0.049947027 0.71805483 -0.018059613
-0.046478812 0.71723473 -0.016975712
-0.043333914 0.71644944 -0.016269146
0.011574116 0.71635753 -0.016096238
0.014594882 0.71702802 -0.016590355
0.018083921 0.71790963 -0.017347546
0.021917576 0.71828508 -0.018734524
0.024848316 0.71930891 -0.01943033
-0.060449686 0.72351664 -0.019131688
-0.057650756 0.7225529 -0.018276619
-0.054299448 0.72124553 -0.017531907
-0.051401436 0.72055739 -0.016550051
0.01916853 0.72053486 -0.016312603
0.02231711 0.72167212 -0.017078107
0.025650069 0.72219539 -0.01842331
0.028712187 0.72309995 -0.019625252
-0.06556005 0.72701281 -0.018662084
-0.062164381 0.72564965 -0.017757518
-0.058907468 0.72450441 -0.016813638
0.023314178 0.72444713 -0.016347991
0.026005903 0.72576112 -0.017138809
0.029499644 0.72617644 -0.018995957
-0.076465763 0.7318809 -0.019981245
-0.073395349 0.73121816 -0.018689185
-0.070059858 0.73006207 -0.017959811
-0.066644706 0.72888559 -0.016970897
0.027087415 0.72936356 -0.016567551
0.030049592 0.73021489 -0.018305538
0.032225206 0.73068357 -0.019860562
-0.085443638 0.73525763 -0.016771132
-0.081751764 0.73473752 -0.017545661
-0.077956937 0.73365134 -0.018028941
-0.074170344 0.73273748 -0.017068995
-0.071529627 0.73201698 -0.016522825
0.027880926 0.73228365 -0.016272521
0.030088132 0.73375452 -0.017661683
0.032170817 0.73389429 -0.01965685
0.030569073 0.7379294 -0.017701406
0.032255642 0.73768628 -0.019799553
0.030661171 0.74204898 -0.017810967
0.030482626 0.74574149 -0.017807374
0.030068224 0.74964553 -0.017555961
0.029503617 0.75378585 -0.017203609
0.027114267 0.75876802 -0.016845172
0.028919728 0.75767934 -0.017710907
0.026744604 0.7622667 -0.017056571
0.028247885 0.76079416 -0.017758982
0.026290279 0.76617676 -0.017808236
0.025132475 0.76914001 -0.017833034
0.02289289 0.77422392 -0.017854687
0.022721695 0.77669609 -0.017159289
0.019722674 0.78075159 -0.019993348
0.021174645 0.78178507 -0.017149951
0.018566595 0.78635538 -0.018160293
-0.029561156 0.71161038 -0.015544205
-0.025659613 0.7110275 -0.015275533
-0.022001868 0.71077174 -0.015102495
-0.017926211 0.71069032 -0.015049599
-0.014180107 0.710769 -0.0151158
-0.010074182 0.71107191 -0.015211308
-0.0059548067 0.71133327 -0.015477935
-0.0023269015 0.71170259 -0.015745884
-0.040957712 0.7157197 -0.01580175
-0.03765735 0.71511364 -0.015232988
-0.03397787 0.7144326 -0.014631217
-0.030000359 0.71399134 -0.013970149
-0.025860304 0.71377075 -0.01339379
-0.022153197 0.71358174 -0.013140202
-0.017803546 0.71367228 -0.012975798
-0.014039136 0.71361065 -0.013134756
-0.009954419 0.71382463 -0.01330375
-0.0062167593 0.71400023 -0.013576045
-0.0019326903 0.71393842 -0.01427492
0.001865995 0.7142536 -0.014854721
0.0057800771 0.71506673 -0.015241897
0.0087407967 0.71552503 -0.0156774
-0.048564997 0.7196601 -0.015602016
-0.045626797 0.7189008 -0.015102241
-0.042041972 0.71819806 -0.014363716
-0.038041405 0.7178694 -0.013368051
-0.034232736 0.71725696 -0.012794968
-0.030380644 0.71658641 -0.012327004
-0.026624208 0.71609712 -0.012133451
-0.0084293205 0.71639818 -0.012064232
-0.0052523999 0.71643776 -0.012209775
-0.0016728634 0.71683127 -0.012507821
0.0022506004 0.71756011 -0.012886353
0.0059218337 0.71800202 -0.013481576
0.009941157 0.71801466 -0.014584422
0.013714533 0.71870488 -0.015316508
0.016458018 0.71958143 -0.015773712
-0.056083683 0.72356641 -0.015985433
-0.053571075 0.72310328 -0.015115728
-0.04985135 0.72221488 -0.01418803
-0.046172969 0.72155917 -0.013228766
-0.042241979 0.72082102 -0.012528322
-0.039571278 0.72022808 -0.012143627
0.0067740618 0.72063392 -0.012317481
0.010138664 0.72150981 -0.012771285
0.014121862 0.72195256 -0.013789653
0.017940233 0.72223026 -0.015009281
0.020878302 0.72338212 -0.015573056
-0.061184779 0.7272349 -0.015094528
-0.057885215 0.7263332 -0.014238722
-0.053969096 0.72523999 -0.013325059
-0.050483871 0.72456074 -0.012486454
0.011840674 0.72408515 -0.012210486
0.014700058 0.72523481 -0.012525207
0.017929921 0.72603828 -0.013380382
0.021912729 0.72622687 -0.014866094
0.02465751 0.72716725 -0.015585405
-0.068963848 0.73139912 -0.015306099
-0.065701835 0.73048091 -0.014264672
-0.062370155 0.72931832 -0.013592491
-0.058600027 0.72850257 -0.012501691
0.018781452 0.72932237 -0.01249834
0.022041997 0.72998685 -0.013617693
0.025321618 0.73025995 -0.015246292
-0.07766936 0.73545563 -0.015329336
-0.073568396 0.73458445 -0.014183975
-0.070153087 0.73342866 -0.013654853
-0.066697069 0.73268139 -0.012448402
0.022431415 0.73339939 -0.012765742
0.025953555 0.73384476 -0.014603051
0.02830933 0.73558187 -0.015762607
-0.085661314 0.73784375 -0.013655427
-0.082098924 0.73753387 -0.013946752
-0.078113765 0.73717237 -0.013237788
-0.074806958 0.73661309 -0.012487211
0.023498187 0.73683381 -0.012229688
0.026034808 0.73792332 -0.013508666
0.028472014 0.73847705 -0.01534293
0.026691884 0.74198592 -0.013042229
0.028746931 0.74229598 -0.015024101
0.027247695 0.74598765 -0.0128003
0.028963128 0.74596 -0.014972268
0.027510259 0.750314 -0.012713033
0.028629677 0.74993557 -0.014404366
0.027544357 0.7539205 -0.012736579
0.0285492 0.75328374 -0.014497092
0.026316607 0.75942844 -0.015553215
0.028489962 0.75732183 -0.015622295
0.026013609 0.76215935 -0.01491469
0.023958441 0.76545423 -0.013221514
0.02489781 0.76610178 -0.013527169
0.023788907 0.77101153 -0.012409449
0.024425644 0.76870781 -0.013013477
0.023590904 0.77402246 -0.013439506
0.024020173 0.77222651 -0.014786954
0.022919327 0.77813691 -0.014640677
0.022663673 0.78122836 -0.0135235
-0.024984172 0.71589994 -0.011853944
-0.02180397 0.71563125 -0.011806765
-0.017757375 0.71565706 -0.011693898
-0.014213592 0.71556556 -0.011833612
-0.011332562 0.71581012 -0.01184548
-0.036888916 0.71963793 -0.011781293
-0.033649623 0.71904743 -0.011480648
-0.029921168 0.71849477 -0.011112288
-0.026026687 0.71803588 -0.010837882
-0.021995759 0.71807677 -0.010484737
-0.017971927 0.71793908 -0.010451029
-0.014093773 0.7179746 -0.010554339
-0.010098769 0.71796721 -0.010810969
-0.0061565125 0.71831834 -0.01101331
-0.0022707738 0.71880835 -0.011295347
0.0014562983 0.71941274 -0.011674301
-0.045165692 0.72322249 -0.011516426
-0.04185668 0.7226845 -0.010999812
-0.037814803 0.7219708 -0.010548801
-0.034039125 0.72201914 -0.0098350514
-0.029987961 0.72194439 -0.0092947707
-0.026042843 0.72183353 -0.0089582046
-0.022046892 0.72178733 -0.008725822
-0.017962513 0.72162378 -0.008682685
-0.0139619 0.72178841 -0.0087348782
-0.0099354479 0.72190464 -0.0089252917
-0.0060105883 0.72202682 -0.0092844982
-0.002050342 0.72204596 -0.0098399464
0.0019062049 0.72203881 -0.010565124
0.0059996992 0.72237861 -0.011265589
0.0093911188 0.72329921 -0.011661096
-0.053445015 0.72721988 -0.011380077
-0.049747419 0.72641742 -0.010713778
-0.045868661 0.72596377 -0.0098725837
-0.042071607 0.72571272 -0.0091319159
-0.038226586 0.7252717 -0.0087043541
-0.034370363 0.72479457 -0.0084456559
-0.030524561 0.72434151 -0.0082459003
-0.027066415 0.72452217 -0.0080667892
-0.012764695 0.72421813 -0.0080529787
-0.0093213664 0.72429103 -0.0081109665
-0.0054940782 0.72487634 -0.0082824221
-0.0016540004 0.7256273 -0.0085350443
0.0019639474 0.72611117 -0.0089896396
0.0059968168 0.72581965 -0.0098983813
0.010070749 0.72615725 -0.010754842
0.01338877 0.72662663 -0.011483894
-0.06152229 0.73130924 -0.011131831
-0.057816252 0.73022211 -0.010601159
-0.054188196 0.72981441 -0.0096014133
-0.050242215 0.7291503 -0.0088639492
-0.046356939 0.72850472 -0.008292472
-0.042726468 0.72800916 -0.0080121337
0.0024380514 0.72867668 -0.0082871662
0.0060893223 0.72975069 -0.0086192396
0.010087034 0.7300579 -0.0093682548
0.014070529 0.73009253 -0.010478909
0.01735219 0.73055685 -0.011482037
0.020717608 0.73176336 -0.011770373
-0.069304548 0.73520619 -0.011251924
-0.065579951 0.7341609 -0.010419266
-0.062094025 0.73387724 -0.0091680093
-0.058348719 0.73286414 -0.0086980751
-0.055385876 0.73229331 -0.0081823273
0.007105594 0.73227561 -0.0081320228
0.010229498 0.73360771 -0.0083951894
0.014183366 0.73394656 -0.0093232216
0.017939782 0.7338717 -0.010629961
0.020850105 0.73448908 -0.011585065
-0.085761912 0.73959678 -0.011633844
-0.081418842 0.73946995 -0.011542758
-0.077875055 0.73909134 -0.011028484
-0.073798455 0.73818594 -0.01050737
-0.06998115 0.73767871 -0.0095100449
-0.066493869 0.73698765 -0.0085768495
-0.063566342 0.73649013 -0.0080043375
0.011754725 0.73640269 -0.0080286469
0.014510901 0.73739654 -0.008449534
0.017692601 0.73793691 -0.0093090134
0.021995516 0.73812848 -0.011060774
0.024401732 0.73941511 -0.011905615
-0.088718839 0.74232745 -0.0087285107
-0.085888445 0.74138975 -0.0097391438
-0.082056001 0.74152595 -0.0094478698
-0.077923022 0.74117476 -0.0090986416
-0.074230812 0.74075609 -0.008613009
-0.070999414 0.74029624 -0.0081401113
0.015760899 0.74027252 -0.0080833146
0.018308109 0.74165165 -0.008502977
0.021993766 0.74191928 -0.009995182
0.024666695 0.7422632 -0.011356757
0.019469161 0.74488223 -0.0081664827
0.022127097 0.74619198 -0.0090550212
0.025306154 0.74611056 -0.010918012
0.022764584 0.74962276 -0.0086254515
0.025696281 0.75008082 -0.010496594
0.023395555 0.75405306 -0.0085150832
0.02569709 0.75398338 -0.0098806955
0.023515409 0.75727022 -0.0084798904
0.025565663 0.75762171 -0.0096215578
0.024641292 0.76015711 -0.008698306
0.023197873 0.76711261 -0.0098571517
0.024197631 0.76725936 -0.011611905
0.02311958 0.76983374 -0.01017057
0.022871986 0.7735185 -0.0097458689
0.023084134 0.77829587 -0.010040941
0.02268659 0.78198808 -0.01001697
0.024098288 0.78115803 -0.010602074
-0.024846122 0.72368139 -0.0078870524
-0.022047317 0.7237311 -0.0078461533
-0.017924847 0.72350502 -0.0078666294
-0.01420936 0.72358447 -0.0078384038
-0.011598011 0.72390699 -0.0079850592
-0.041679278 0.72761917 -0.0078392113
-0.037878398 0.7272557 -0.0075844727
-0.033865996 0.72679031 -0.0074026296
-0.029974425 0.72612733 -0.0074045947
-0.025918109 0.72607619 -0.0072059799
-0.022131057 0.7259922 -0.0071113356
-0.017989486 0.72603047 -0.0070461296
-0.013963027 0.72580516 -0.0072467513
-0.0099803582 0.72606272 -0.0073906789
-0.0059963539 0.72658926 -0.0075902119
-0.0023371512 0.72745097 -0.0077708745
-0.052364379 0.73143142 -0.0078802276
-0.049584206 0.73099464 -0.0074261525
-0.045960996 0.7303369 -0.0071339249
-0.041990351 0.72986341 -0.0067933267
-0.038018864 0.72983867 -0.0064457804
-0.033954013 0.72996622 -0.0061513581
-0.030066594 0.72996968 -0.0060403063
-0.026029082 0.72984946 -0.0059992033
-0.021975616 0.72997695 -0.0059505752
-0.017955037 0.73005229 -0.0059637404
-0.014094654 0.73001391 -0.0061071455
-0.010138073 0.72998995 -0.0063399705
-0.0060169324 0.73000711 -0.0066682226
-0.0020792084 0.72989625 -0.0071600461
0.0016167484 0.7303406 -0.0076093655
0.0049700602 0.73144639 -0.0078644855
-0.061306696 0.73553562 -0.007636473
-0.057630874 0.73465407 -0.007179515
-0.053988717 0.73396701 -0.006646818
-0.050079174 0.7338751 -0.0058690454
-0.046217203 0.73407447 -0.0052213143
-0.042144563 0.73386592 -0.0049624373
-0.038078237 0.73389739 -0.0047990354
-0.034079265 0.73381567 -0.0048187571
-0.030104021 0.73399687 -0.0048679551
-0.025993554 0.73419118 -0.0049020625
-0.021992249 0.73405105 -0.0050618793
-0.018127745 0.73385388 -0.005231359
-0.014073026 0.73407292 -0.0053208764
-0.010009013 0.73406541 -0.0055803121
-0.0059736008 0.73413187 -0.0059048031
-0.0019653491 0.73360497 -0.0063972725
0.0020670258 0.73385769 -0.0068606748
0.0060423007 0.73395163 -0.0074620028
0.0092683248 0.73524171 -0.0077550965
-0.068882942 0.7393105 -0.0078900857
-0.06570629 0.73860866 -0.007173887
-0.061838172 0.73814434 -0.0062325755
-0.058024157 0.73786986 -0.0053294301
-0.054381005 0.73731953 -0.0047921347
-0.05038359 0.7368111 -0.0044437386
-0.046276867 0.73646182 -0.0042254105
-0.04214308 0.73648828 -0.0040630768
-0.037804827 0.73617667 -0.004100482
-0.033789158 0.73632884 -0.0041052126
-0.029914172 0.73684412 -0.0041964189
-0.026086057 0.73712873 -0.0042798775
-0.022024704 0.73763329 -0.0044022971
-0.018046705 0.73803163 -0.0045909015
-0.013940531 0.73782074 -0.0048107333
-0.0099474629 0.73790896 -0.0050661997
-0.0059522558 0.737885 -0.0054843221
-0.0019072258 0.73787814 -0.0057992106
0.0018520524 0.73789918 -0.0061027901
0.005944889 0.73806721 -0.0065706382
0.009979262 0.73816347 -0.0071885474
0.013106999 0.73882759 -0.0076230983
-0.08914008 0.74350286 -0.0076353461
-0.086378723 0.74384111 -0.0075517138
-0.081932187 0.74353409 -0.0076633389
-0.077811711 0.74331689 -0.0074906894
-0.073875047 0.74273068 -0.0071696271
-0.069898181 0.74219185 -0.0065282709
-0.065759994 0.74192262 -0.0054613184
-0.062138271 0.7413677 -0.0047026188
-0.058813266 0.74044621 -0.0043051289
