# .PCD v0.7 - Point Cloud Data file format
VERSION 0.7
FIELDS x y z rgb
SIZE 4 4 4 4
TYPE F F F F
COUNT 1 1 1 1
WIDTH 951
HEIGHT 1
VIEWPOINT 0 0 0 1 0 0 0
POINTS 951
DATA ascii
-0.069948524 0.75158596 -0.03670419 2.3509886e-38
0.078755289 0.75134379 -0.036750037 2.3509886e-38
0.079173431 0.75155842 -0.036385726 2.3509886e-38
-0.07041245 0.75219315 -0.036145024 2.3509886e-38
0.07813327 0.75247878 -0.036638107 2.3509886e-38
0.076895967 0.75366288 -0.03698197 2.3509886e-38
-0.069556817 0.75428087 -0.036510814 2.3509886e-38
0.07638815 0.75474352 -0.036831286 2.3509886e-38
0.077398933 0.7541855 -0.036321439 2.3509886e-38
-0.069476523 0.75542915 -0.036442548 2.3509886e-38
0.076555803 0.7558403 -0.036174227 2.3509886e-38
0.077078253 0.75515813 -0.036086474 2.3509886e-38
-0.069294073 0.75698131 -0.036420923 2.3509886e-38
0.076422915 0.75623721 -0.036074098 2.3509886e-38
-0.069343612 0.75753415 -0.036254201 2.3509886e-38
0.075590193 0.75727439 -0.036309302 2.3509886e-38
0.075351074 0.75818425 -0.036112871 2.3509886e-38
-0.068599582 0.75947028 -0.036669694 2.3509886e-38
0.074346408 0.7594859 -0.036440548 2.3509886e-38
-0.068331674 0.76038039 -0.036734559 2.3509886e-38
0.073495477 0.76026833 -0.03688468 2.3509886e-38
0.074143626 0.7600053 -0.036406234 2.3509886e-38
-0.068400949 0.76147336 -0.036296476 2.3509886e-38
0.073465489 0.7612651 -0.036556985 2.3509886e-38
-0.068262711 0.7625944 -0.036421966 2.3509886e-38
-0.067927659 0.76218009 -0.036497608 2.3509886e-38
0.072643392 0.76255965 -0.036873244 2.3509886e-38
0.073303446 0.76248705 -0.03623585 2.3509886e-38
-0.067575321 0.763749 -0.036819868 2.3509886e-38
0.07253655 0.76300293 -0.036752552 2.3509886e-38
0.07241717 0.76439261 -0.036446907 2.3509886e-38
-0.068037026 0.76507574 -0.036099654 2.3509886e-38
0.07156378 0.765562 -0.036908053 2.3509886e-38
-0.067447737 0.76628792 -0.036458619 2.3509886e-38
0.071868002 0.76657856 -0.036206245 2.3509886e-38
-0.066964693 0.76757103 -0.036686137 2.3509886e-38
0.070960522 0.76717687 -0.036941584 2.3509886e-38
0.071427934 0.76747024 -0.036383621 2.3509886e-38
-0.067143641 0.7693584 -0.036204454 2.3509886e-38
0.070884652 0.76934564 -0.036363006 2.3509886e-38
0.071127236 0.76949179 -0.036000412 2.3509886e-38
-0.067582674 0.77033281 -0.036343135 2.3509886e-38
0.070946693 0.77020359 -0.036037836 2.3509886e-38
-0.067628257 0.77138287 -0.03624953 2.3509886e-38
0.070345625 0.77151501 -0.036338374 2.3509886e-38
-0.067236796 0.77259445 -0.036413856 2.3509886e-38
-0.066687696 0.77255416 -0.036928326 2.3509886e-38
0.069649637 0.77246857 -0.036796965 2.3509886e-38
0.070146762 0.77255201 -0.036152776 2.3509886e-38
-0.067224093 0.77347469 -0.036096524 2.3509886e-38
-0.066734366 0.77369905 -0.036908645 2.3509886e-38
0.069558024 0.77375644 -0.036524158 2.3509886e-38
-0.066586576 0.7747038 -0.036511209 2.3509886e-38
0.06923575 0.77451479 -0.036692664 2.3509886e-38
0.069271117 0.77526206 -0.036311332 2.3509886e-38
0.069005795 0.77650303 -0.036362991 2.3509886e-38
-0.065968752 0.77743703 -0.036385115 2.3509886e-38
0.06881094 0.77709532 -0.036359519 2.3509886e-38
-0.065242924 0.77840245 -0.036783576 2.3509886e-38
0.067882411 0.77868271 -0.036817782 2.3509886e-38
0.068030857 0.77894711 -0.036481265 2.3509886e-38
-0.065313496 0.77990454 -0.036047686 2.3509886e-38
-0.064749144 0.77946222 -0.036933191 2.3509886e-38
0.067242257 0.77978235 -0.036991414 2.3509886e-38
-0.065050758 0.78031194 -0.036171321 2.3509886e-38
-0.064652264 0.78057253 -0.036442868 2.3509886e-38
0.067678891 0.78039879 -0.036251411 2.3509886e-38
0.066618055 0.78159714 -0.036820278 2.3509886e-38
0.067193903 0.78106034 -0.036455423 2.3509886e-38
-0.064099155 0.7821641 -0.036170822 2.3509886e-38
-0.06328883 0.78248113 -0.03662502 2.3509886e-38
-0.062889233 0.78297466 -0.036711417 2.3509886e-38
0.06652981 0.78233665 -0.036437448 2.3509886e-38
-0.062633403 0.78341395 -0.036527056 2.3509886e-38
-0.061893567 0.78389508 -0.036914885 2.3509886e-38
0.065504864 0.78356516 -0.036897361 2.3509886e-38
0.06601458 0.78309864 -0.036632761 2.3509886e-38
-0.062436789 0.78436708 -0.036052506 2.3509886e-38
-0.061477289 0.7843132 -0.036625028 2.3509886e-38
0.065630689 0.78442055 -0.036229752 2.3509886e-38
-0.061093748 0.78517503 -0.036320481 2.3509886e-38
-0.060488664 0.78541887 -0.036501698 2.3509886e-38
-0.059889823 0.78577423 -0.036646593 2.3509886e-38
0.064731695 0.78545451 -0.036527075 2.3509886e-38
-0.059247401 0.78644544 -0.036363859 2.3509886e-38
0.064772964 0.78608406 -0.03604833 2.3509886e-38
-0.058228657 0.78729868 -0.036307886 2.3509886e-38
-0.057381827 0.78760833 -0.036568228 2.3509886e-38
0.062480193 0.78789669 -0.036805704 2.3509886e-38
-0.055722442 0.78833932 -0.036535416 2.3509886e-38
-0.054877527 0.78879613 -0.036820959 2.3509886e-38
-0.055455178 0.78920299 -0.036030527 2.3509886e-38
-0.054184858 0.78947842 -0.036305651 2.3509886e-38
-0.052909248 0.789783 -0.036535688 2.3509886e-38
0.060977101 0.78957289 -0.036727317 2.3509886e-38
0.061746567 0.78945506 -0.036239505 2.3509886e-38
-0.051537182 0.79042023 -0.036300603 2.3509886e-38
-0.050243828 0.79070187 -0.036512177 2.3509886e-38
0.060470052 0.79023361 -0.036560353 2.3509886e-38
0.061080713 0.79015738 -0.036203355 2.3509886e-38
-0.049011216 0.79117543 -0.036286805 2.3509886e-38
-0.047698397 0.79140806 -0.036457624 2.3509886e-38
-0.046355806 0.79160172 -0.0365858 2.3509886e-38
-0.045521151 0.79149413 -0.036763672 2.3509886e-38
-0.044073783 0.7918328 -0.03665626 2.3509886e-38
0.058263935 0.79170442 -0.036749616 2.3509886e-38
0.059559386 0.7912733 -0.036319442 2.3509886e-38
-0.04310808 0.79222786 -0.036281835 2.3509886e-38
-0.042712197 0.79200006 -0.036729049 2.3509886e-38
-0.041549802 0.79227138 -0.036596328 2.3509886e-38
-0.040614158 0.79287374 -0.036020577 2.3509886e-38
-0.039983094 0.79234552 -0.036880601 2.3509886e-38
-0.038701236 0.79267442 -0.036589481 2.3509886e-38
-0.037344906 0.79277134 -0.036667898 2.3509886e-38
-0.03577999 0.79281366 -0.036869906 2.3509886e-38
-0.034619913 0.79298401 -0.036833718 2.3509886e-38
0.056463026 0.79265493 -0.036867205 2.3509886e-38
-0.039250828 0.79301494 -0.036108624 2.3509886e-38
-0.038465455 0.79314643 -0.036001205 2.3509886e-38
-0.03709729 0.79327458 -0.036046144 2.3509886e-38
-0.036183063 0.79320776 -0.03625644 2.3509886e-38
-0.035727136 0.79340792 -0.0360942 2.3509886e-38
-0.03458875 0.79343367 -0.036235683 2.3509886e-38
-0.033358637 0.79342294 -0.036439974 2.3509886e-38
-0.032532811 0.79359239 -0.036314338 2.3509886e-38
-0.031740196 0.79347265 -0.036593445 2.3509886e-38
-0.030467127 0.79374027 -0.036363728 2.3509886e-38
-0.02928609 0.79382926 -0.036359422 2.3509886e-38
-0.028835448 0.79395902 -0.036239088 2.3509886e-38
-0.027967112 0.79377395 -0.036592618 2.3509886e-38
-0.026592029 0.79386348 -0.036642842 2.3509886e-38
-0.025216835 0.79396242 -0.036698245 2.3509886e-38
0.054431077 0.79367465 -0.036842231 2.3509886e-38
0.055534445 0.79364049 -0.03637952 2.3509886e-38
0.056910902 0.7930584 -0.036248378 2.3509886e-38
-0.027650762 0.79405022 -0.036242004 2.3509886e-38
-0.026268661 0.79414272 -0.03628172 2.3509886e-38
-0.0250881 0.79421747 -0.036350079 2.3509886e-38
-0.02468908 0.79428971 -0.036318403 2.3509886e-38
-0.023624064 0.79429913 -0.036534488 2.3509886e-38
-0.022405192 0.79436255 -0.036701042 2.3509886e-38
-0.021100283 0.79438585 -0.036949862 2.3509886e-38
-0.020962579 0.79462612 -0.036638752 2.3509886e-38
0.051628593 0.79496688 -0.036572315 2.3509886e-38
0.052325495 0.79467696 -0.036667693 2.3509886e-38
0.053312052 0.79465193 -0.036305699 2.3509886e-38
0.054230951 0.79435873 -0.036251441 2.3509886e-38
-0.019824492 0.79516709 -0.03607551 2.3509886e-38
-0.018447101 0.7953167 -0.036162261 2.3509886e-38
-0.016672565 0.79533309 -0.036517292 2.3509886e-38
-0.01532809 0.79577309 -0.036129251 2.3509886e-38
-0.013722555 0.79572654 -0.036543306 2.3509886e-38
-0.012117348 0.79569131 -0.03691487 2.3509886e-38
-0.011338717 0.79596061 -0.036664527 2.3509886e-38
-0.01073531 0.79583198 -0.036963008 2.3509886e-38
0.049687702 0.7954911 -0.036626723 2.3509886e-38
0.050261609 0.7954843 -0.036467187 2.3509886e-38
-0.012564317 0.79603612 -0.036312006 2.3509886e-38
-0.011179116 0.79615635 -0.036394957 2.3509886e-38
-0.010816799 0.79645741 -0.036005411 2.3509886e-38
-0.0097250706 0.79631281 -0.036416173 2.3509886e-38
-0.0083362823 0.79643089 -0.036474656 2.3509886e-38
-0.0070953695 0.79638052 -0.036726423 2.3509886e-38
-0.006644418 0.79683763 -0.036112815 2.3509886e-38
-0.0055517317 0.79662412 -0.036561657 2.3509886e-38
-0.0043084649 0.79653513 -0.036815118 2.3509886e-38
-0.0030048743 0.79651821 -0.036948979 2.3509886e-38
-0.001478717 0.79660469 -0.03690742 2.3509886e-38
4.3525237e-05 0.7966615 -0.036863256 2.3509886e-38
0.0014344568 0.79667646 -0.036874309 2.3509886e-38
0.0028270741 0.79667759 -0.036875263 2.3509886e-38
0.003177159 0.7966066 -0.036994155 2.3509886e-38
0.0043962994 0.79664242 -0.036909543 2.3509886e-38
0.0059677921 0.79661947 -0.036902361 2.3509886e-38
0.0073627154 0.79662377 -0.036854979 2.3509886e-38
0.0084646642 0.79661256 -0.036838591 2.3509886e-38
0.0095686102 0.79658061 -0.036842182 2.3509886e-38
0.010558756 0.79659295 -0.03678409 2.3509886e-38
0.011546566 0.79662603 -0.03670498 2.3509886e-38
0.012622148 0.79659158 -0.036714587 2.3509886e-38
0.013859107 0.79654825 -0.036720023 2.3509886e-38
0.014335309 0.79661798 -0.036597323 2.3509886e-38
0.015413669 0.79656047 -0.036649685 2.3509886e-38
0.01665199 0.79651415 -0.036682442 2.3509886e-38
0.017535441 0.79655838 -0.036593877 2.3509886e-38
0.018333707 0.79657531 -0.036551587 2.3509886e-38
0.019600512 0.79654837 -0.036575925 2.3509886e-38
0.020842001 0.79649556 -0.036649432 2.3509886e-38
0.021169066 0.79656649 -0.036538329 2.3509886e-38
0.022393471 0.79659623 -0.036503535 2.3509886e-38
0.023637366 0.79650509 -0.036643028 2.3509886e-38
0.024512533 0.79662299 -0.036471777 2.3509886e-38
0.025311098 0.79663366 -0.036466427 2.3509886e-38
0.026613045 0.79666293 -0.036447059 2.3509886e-38
0.027642133 0.79664069 -0.036505077 2.3509886e-38
0.028272191 0.79683971 -0.036230486 2.3509886e-38
0.029311899 0.79659021 -0.036609273 2.3509886e-38
0.030631129 0.79657185 -0.036666084 2.3509886e-38
0.03144455 0.79678649 -0.036397684 2.3509886e-38
0.032292407 0.79676622 -0.036436751 2.3509886e-38
0.033466019 0.79674518 -0.036475115 2.3509886e-38
0.034887113 0.79655868 -0.036746051 2.3509886e-38
0.035492562 0.79673636 -0.036542267 2.3509886e-38
0.036240079 0.79661065 -0.03668382 2.3509886e-38
0.037645388 0.79661036 -0.036682252 2.3509886e-38
0.038953919 0.79664642 -0.036613654 2.3509886e-38
0.03925585 0.79656148 -0.0366995 2.3509886e-38
0.040454961 0.79657394 -0.036650315 2.3509886e-38
0.041703548 0.79668093 -0.036464658 2.3509886e-38
0.042354275 0.79680854 -0.036220521 2.3509886e-38
0.043318301 0.79642689 -0.03664292 2.3509886e-38
0.044698458 0.79640967 -0.036518764 2.3509886e-38
0.045960125 0.79641789 -0.036379978 2.3509886e-38
0.046121653 0.79627287 -0.036522429 2.3509886e-38
0.047583655 0.79615927 -0.036402639 2.3509886e-38
0.048778825 0.79608607 -0.036215544 2.3509886e-38
-0.0038536682 0.79702681 -0.03613992 2.3509886e-38
-0.0024563572 0.79710281 -0.036140278 2.3509886e-38
-0.0010585497 0.79715174 -0.036122784 2.3509886e-38
-0.00015815326 0.79716265 -0.036121357 2.3509886e-38
0.00038243984 0.79712814 -0.036178999 2.3509886e-38
0.0015042418 0.7971766 -0.036138743 2.3509886e-38
0.0026288487 0.79719955 -0.036114354 2.3509886e-38
0.0040234127 0.79720104 -0.036098395 2.3509886e-38
0.0054183984 0.79718763 -0.036071669 2.3509886e-38
0.006812979 0.79717731 -0.03604706 2.3509886e-38
0.029685548 0.79700208 -0.036005016 2.3509886e-38
0.032754112 0.79704863 -0.036089957 2.3509886e-38
0.035234246 0.79703194 -0.036098287 2.3509886e-38
0.036624487 0.79706287 -0.036065854 2.3509886e-38
0.037777998 0.79715294 -0.036006283 2.3509886e-38
0.038154922 0.7970866 -0.036013886 2.3509886e-38
-0.083342552 0.74289274 -0.035122294 2.3509886e-38
-0.08259283 0.74270558 -0.035553865 2.3509886e-38
-0.081651911 0.74278021 -0.035641968 2.3509886e-38
-0.080212981 0.74285936 -0.035836816 2.3509886e-38
-0.079906635 0.74297047 -0.035987757 2.3509886e-38
0.088438213 0.74282533 -0.035676941 2.3509886e-38
-0.082390152 0.74318248 -0.035155676 2.3509886e-38
-0.081243291 0.74314916 -0.035202727 2.3509886e-38
-0.080530569 0.74327564 -0.035411123 2.3509886e-38
-0.079476565 0.74349475 -0.035467584 2.3509886e-38
-0.077777363 0.74374664 -0.035968855 2.3509886e-38
0.087587021 0.7437852 -0.035634987 2.3509886e-38
0.088292591 0.74380726 -0.035136618 2.3509886e-38
-0.077692986 0.74431974 -0.035436533 2.3509886e-38
0.086066559 0.74487972 -0.035884544 2.3509886e-38
0.087398268 0.74439484 -0.03533395 2.3509886e-38
-0.076548673 0.74517614 -0.035373755 2.3509886e-38
-0.075740382 0.74549675 -0.035612788 2.3509886e-38
0.085731529 0.74563128 -0.035627123 2.3509886e-38
0.08659111 0.74536693 -0.035226446 2.3509886e-38
-0.075487934 0.7462247 -0.03520795 2.3509886e-38
-0.074913047 0.74616128 -0.035708357 2.3509886e-38
0.084508859 0.74677926 -0.035692658 2.3509886e-38
0.085097209 0.74675953 -0.035297446 2.3509886e-38
-0.07421039 0.74741745 -0.035366237 2.3509886e-38
-0.073588975 0.74754781 -0.035746638 2.3509886e-38
-0.072996676 0.74786037 -0.035950229 2.3509886e-38
0.082960509 0.74791312 -0.035942856 2.3509886e-38
0.083719157 0.74753338 -0.035703912 2.3509886e-38
0.084181249 0.74714446 -0.035647638 2.3509886e-38
-0.073229872 0.74855208 -0.035372809 2.3509886e-38
-0.07253544 0.74829811 -0.035983521 2.3509886e-38
0.08271718 0.74898916 -0.035436571 2.3509886e-38
0.083326578 0.74821031 -0.035538785 2.3509886e-38
-0.072443463 0.74959344 -0.035361081 2.3509886e-38
-0.071968384 0.74991143 -0.035513699 2.3509886e-38
0.081655823 0.74936301 -0.035921462 2.3509886e-38
0.082457788 0.74916542 -0.035502329 2.3509886e-38
-0.072213002 0.75029385 -0.035170052 2.3509886e-38
-0.07136301 0.75050813 -0.035785347 2.3509886e-38
0.082099997 0.75037986 -0.035005081 2.3509886e-38
-0.071550071 0.75159317 -0.035227437 2.3509886e-38
-0.070697762 0.75146091 -0.035916857 2.3509886e-38
0.080356076 0.75133961 -0.035658419 2.3509886e-38
0.079580784 0.75236642 -0.035618726 2.3509886e-38
-0.070460275 0.75396717 -0.035709281 2.3509886e-38
0.078353174 0.7537964 -0.035764109 2.3509886e-38
0.079043753 0.75314146 -0.035551764 2.3509886e-38
-0.070859313 0.75428551 -0.035156626 2.3509886e-38
0.078312755 0.75433326 -0.035512641 2.3509886e-38
-0.070367955 0.75547647 -0.035431486 2.3509886e-38
0.077714711 0.75535738 -0.035470039 2.3509886e-38
0.078412369 0.75517815 -0.035005983 2.3509886e-38
-0.069923654 0.75675571 -0.035731066 2.3509886e-38
0.076555841 0.75676101 -0.035740376 2.3509886e-38
-0.069935367 0.75727165 -0.035669994 2.3509886e-38
0.076826341 0.75741196 -0.035191827 2.3509886e-38
0.07629437 0.75866914 -0.035087913 2.3509886e-38
0.074934676 0.75940514 -0.035955921 2.3509886e-38
0.075665124 0.75939023 -0.035316065 2.3509886e-38
0.07604523 0.75908524 -0.035115391 2.3509886e-38
-0.069178395 0.76044172 -0.035688754 2.3509886e-38
0.075459473 0.76038992 -0.035055939 2.3509886e-38
-0.069217995 0.76147699 -0.035296299 2.3509886e-38
-0.068834782 0.7612583 -0.035987623 2.3509886e-38
0.074578576 0.76138258 -0.035489518 2.3509886e-38
0.075063251 0.76130944 -0.035075594 2.3509886e-38
-0.069206595 0.76242083 -0.035245694 2.3509886e-38
-0.068538845 0.7625097 -0.035653461 2.3509886e-38
0.073745124 0.76263827 -0.035740804 2.3509886e-38
0.074163482 0.7624498 -0.035448145 2.3509886e-38
-0.06834317 0.76382011 -0.035811801 2.3509886e-38
0.073372111 0.76385826 -0.03564826 2.3509886e-38
0.074090816 0.76371503 -0.035046682 2.3509886e-38
-0.068669073 0.76421368 -0.035122205 2.3509886e-38
0.072988465 0.7642898 -0.035927061 2.3509886e-38
0.073771462 0.76406115 -0.035217978 2.3509886e-38
0.072709382 0.76549959 -0.035773333 2.3509886e-38
-0.068211481 0.76635504 -0.035455305 2.3509886e-38
0.072562784 0.76649833 -0.035471421 2.3509886e-38
-0.067715183 0.76772714 -0.035849262 2.3509886e-38
-0.068416663 0.76812989 -0.035054415 2.3509886e-38
0.071874253 0.76858604 -0.035455368 2.3509886e-38
-0.067986451 0.76912546 -0.035134327 2.3509886e-38
0.071685314 0.76948828 -0.035429262 2.3509886e-38
-0.068150446 0.77069086 -0.035464317 2.3509886e-38
-0.067621343 0.77063352 -0.035544619 2.3509886e-38
0.07094878 0.77067071 -0.035800919 2.3509886e-38
0.071543805 0.77095121 -0.03504638 2.3509886e-38
-0.068210304 0.7715261 -0.035328235 2.3509886e-38
0.071240418 0.77151895 -0.035321768 2.3509886e-38
0.070829093 0.77257556 -0.035280991 2.3509886e-38
-0.067704096 0.77331293 -0.035447061 2.3509886e-38
0.070733994 0.7736128 -0.035207499 2.3509886e-38
-0.067314848 0.7747972 -0.035615295 2.3509886e-38
0.069746256 0.7749052 -0.035884161 2.3509886e-38
0.070292875 0.77425039 -0.035540402 2.3509886e-38
-0.06710685 0.77544034 -0.035772264 2.3509886e-38
-0.066786937 0.77595252 -0.0357081 2.3509886e-38
0.070250168 0.77552879 -0.035219163 2.3509886e-38
-0.067563035 0.77609801 -0.035221647 2.3509886e-38
0.069560006 0.77626944 -0.035764288 2.3509886e-38
-0.066462092 0.7779876 -0.035523128 2.3509886e-38
0.069351874 0.77748585 -0.035539716 2.3509886e-38
-0.066546589 0.77820373 -0.035257164 2.3509886e-38
-0.065802388 0.77872133 -0.035889789 2.3509886e-38
0.068813287 0.77809781 -0.035952814 2.3509886e-38
-0.066108018 0.77936161 -0.03518967 2.3509886e-38
-0.065879799 0.77969462 -0.035365283 2.3509886e-38
-0.065551855 0.78052485 -0.03538337 2.3509886e-38
0.067934416 0.78067082 -0.035781566 2.3509886e-38
-0.065311611 0.78163272 -0.035150535 2.3509886e-38
0.067618288 0.78118688 -0.035961904 2.3509886e-38
0.068058863 0.78138006 -0.035321206 2.3509886e-38
-0.06436605 0.78256321 -0.03553706 2.3509886e-38
0.06753239 0.7827251 -0.035249665 2.3509886e-38
-0.064151749 0.7832216 -0.035261348 2.3509886e-38
-0.063622586 0.78360134 -0.035442963 2.3509886e-38
0.066768512 0.78352499 -0.03562789 2.3509886e-38
0.067362793 0.78310043 -0.03521502 2.3509886e-38
-0.062571518 0.78457856 -0.035577212 2.3509886e-38
-0.061851971 0.78497565 -0.035705481 2.3509886e-38
0.065891862 0.78465545 -0.035833616 2.3509886e-38
0.066675775 0.78430474 -0.03521074 2.3509886e-38
-0.062619872 0.78516495 -0.035024807 2.3509886e-38
-0.061615601 0.78564346 -0.035471048 2.3509886e-38
0.065501802 0.78557086 -0.035713743 2.3509886e-38
0.066201009 0.78524333 -0.035193462 2.3509886e-38
-0.060740098 0.78643066 -0.035405487 2.3509886e-38
-0.059613038 0.78673404 -0.035722461 2.3509886e-38
0.065675214 0.78614676 -0.035177059 2.3509886e-38
-0.059834838 0.78743362 -0.035033107 2.3509886e-38
-0.058732443 0.78786683 -0.035423256 2.3509886e-38
0.063851163 0.78771216 -0.035801064 2.3509886e-38
0.064602315 0.78733289 -0.035407454 2.3509886e-38
-0.056760553 0.78869802 -0.035505582 2.3509886e-38
0.063560218 0.78849655 -0.035504449 2.3509886e-38
-0.056310087 0.7891559 -0.035365637 2.3509886e-38
-0.055705126 0.78951567 -0.035382632 2.3509886e-38
0.062504642 0.78940642 -0.035695184 2.3509886e-38
-0.054539405 0.79007053 -0.035458796 2.3509886e-38
-0.053214766 0.79076099 -0.035214141 2.3509886e-38
-0.052559957 0.79080856 -0.035382934 2.3509886e-38
0.061827175 0.79061061 -0.035296161 2.3509886e-38
-0.051715489 0.79100776 -0.035505157 2.3509886e-38
-0.050582517 0.7915439 -0.03521128 2.3509886e-38
-0.049267188 0.79179358 -0.035393458 2.3509886e-38
-0.048405111 0.7917397 -0.035632923 2.3509886e-38
-0.047134936 0.79176879 -0.035916999 2.3509886e-38
0.059566833 0.79179746 -0.035878748 2.3509886e-38
0.06049791 0.79137576 -0.035621703 2.3509886e-38
0.061066363 0.79155982 -0.035073653 2.3509886e-38
-0.047181841 0.79224467 -0.035317514 2.3509886e-38
-0.045592066 0.79241854 -0.03538242 2.3509886e-38
-0.044434495 0.79255438 -0.035455707 2.3509886e-38
-0.043311067 0.79253113 -0.03579228 2.3509886e-38
-0.041962758 0.79269505 -0.035901271 2.3509886e-38
0.058852449 0.79270005 -0.035536468 2.3509886e-38
0.059749618 0.79219532 -0.035417035 2.3509886e-38
-0.040192921 0.79318959 -0.035585646 2.3509886e-38
-0.03999541 0.79363757 -0.035035528 2.3509886e-38
-0.038732186 0.79355443 -0.035390869 2.3509886e-38
-0.037472397 0.79370648 -0.035397258 2.3509886e-38
-0.036216535 0.79370248 -0.035596028 2.3509886e-38
-0.034847986 0.79380655 -0.035666123 2.3509886e-38
0.056832835 0.79370511 -0.035689138 2.3509886e-38
0.057625841 0.7938081 -0.035189427 2.3509886e-38
0.058047432 0.79332209 -0.035416942 2.3509886e-38
-0.035877571 0.79406047 -0.035191521 2.3509886e-38
-0.034494661 0.79417056 -0.035218019 2.3509886e-38
-0.033352047 0.79419315 -0.035365537 2.3509886e-38
-0.032215834 0.7941879 -0.035530273 2.3509886e-38
-0.031849798 0.79443759 -0.035154719 2.3509886e-38
-0.030475352 0.79450029 -0.035207756 2.3509886e-38
-0.028078593 0.79440981 -0.035642304 2.3509886e-38
-0.026627637 0.7946282 -0.035514407 2.3509886e-38
-0.025251087 0.79474652 -0.035590164 2.3509886e-38
-0.024808466 0.79495543 -0.035403825 2.3509886e-38
-0.023949891 0.79474974 -0.035833471 2.3509886e-38
-0.022573868 0.79487604 -0.035905115 2.3509886e-38
0.055575341 0.79466856 -0.03535467 2.3509886e-38
0.056621399 0.79422992 -0.03529327 2.3509886e-38
0.057323024 0.79412913 -0.035052314 2.3509886e-38
-0.023613375 0.79504728 -0.035479769 2.3509886e-38
-0.022420153 0.79512119 -0.035594147 2.3509886e-38
-0.021351267 0.79528904 -0.035563122 2.3509886e-38
-0.020483641 0.79537261 -0.0356039 2.3509886e-38
-0.019495964 0.79556447 -0.035537306 2.3509886e-38
-0.018311165 0.79572242 -0.035561938 2.3509886e-38
-0.017729001 0.79569143 -0.035727464 2.3509886e-38
-0.016349692 0.79584736 -0.035785999 2.3509886e-38
0.050305888 0.7959671 -0.035932422 2.3509886e-38
0.051445499 0.79571569 -0.035862423 2.3509886e-38
0.052686073 0.79554379 -0.035629638 2.3509886e-38
0.053565726 0.79540002 -0.035447173 2.3509886e-38
0.054411355 0.79522055 -0.035293251 2.3509886e-38
0.055241417 0.79510999 -0.03505851 2.3509886e-38
-0.016857408 0.79614532 -0.035220038 2.3509886e-38
-0.01547656 0.79628181 -0.035305798 2.3509886e-38
-0.014385936 0.7962833 -0.035544299 2.3509886e-38
-0.013586849 0.79616058 -0.035902251 2.3509886e-38
-0.01254156 0.79647946 -0.035639897 2.3509886e-38
-0.011324111 0.79669261 -0.03556148 2.3509886e-38
-0.010027012 0.79671752 -0.03575816 2.3509886e-38
-0.0086364886 0.79683781 -0.035822541 2.3509886e-38
-0.007243928 0.79693991 -0.035874702 2.3509886e-38
0.046460442 0.79666877 -0.035971805 2.3509886e-38
0.047620539 0.79693538 -0.03547249 2.3509886e-38
0.048725389 0.79668987 -0.035565771 2.3509886e-38
0.050477479 0.79664308 -0.035187412 2.3509886e-38
0.051677026 0.79639578 -0.035079677 2.3509886e-38
-0.010897414 0.79708713 -0.035041988 2.3509886e-38
-0.0095040193 0.79723084 -0.035087284 2.3509886e-38
-0.0081085274 0.7973597 -0.035123251 2.3509886e-38
-0.0067108823 0.79747945 -0.03515223 2.3509886e-38
-0.0058488208 0.79703414 -0.035921376 2.3509886e-38
-0.0044522276 0.79711199 -0.035956658 2.3509886e-38
-0.0030538151 0.79717964 -0.035984501 2.3509886e-38
-0.0027663033 0.79725277 -0.035872675 2.3509886e-38
-0.0014840161 0.79753971 -0.035525382 2.3509886e-38
-0.0002001191 0.79782683 -0.035160929 2.3509886e-38
0.00017892508 0.79754686 -0.035573449 2.3509886e-38
0.0014479285 0.79766542 -0.035430957 2.3509886e-38
0.0027030937 0.79759586 -0.035538755 2.3509886e-38
0.0035585805 0.79785287 -0.035154592 2.3509886e-38
0.0043656095 0.79758632 -0.03552483 2.3509886e-38
0.005637357 0.79766876 -0.035365563 2.3509886e-38
0.0067860829 0.79784179 -0.035086494 2.3509886e-38
0.0071575288 0.79757202 -0.035463795 2.3509886e-38
0.0082913712 0.79754341 -0.035467625 2.3509886e-38
0.0096889567 0.79752433 -0.035445645 2.3509886e-38
0.010980202 0.79779768 -0.035005149 2.3509886e-38
0.011193035 0.7972151 -0.035843257 2.3509886e-38
0.012916433 0.79727048 -0.035705492 2.3509886e-38
0.013738939 0.79719132 -0.035802048 2.3509886e-38
0.01431215 0.79727441 -0.035658721 2.3509886e-38
0.01513682 0.79717547 -0.035777174 2.3509886e-38
0.020750659 0.79715538 -0.035708707 2.3509886e-38
0.021610606 0.79735392 -0.035417616 2.3509886e-38
0.022388726 0.79722673 -0.035608571 2.3509886e-38
0.023640618 0.79716611 -0.035703376 2.3509886e-38
0.024504352 0.79728353 -0.035538752 2.3509886e-38
0.025477158 0.79741591 -0.035359301 2.3509886e-38
0.026285376 0.79734778 -0.035470553 2.3509886e-38
0.028415747 0.79713172 -0.035819188 2.3509886e-38
0.029494552 0.79760599 -0.035181426 2.3509886e-38
0.030514792 0.79733169 -0.035602499 2.3509886e-38
0.031452712 0.79738283 -0.035537496 2.3509886e-38
0.032299362 0.79754221 -0.035361499 2.3509886e-38
0.033858944 0.7976616 -0.03523827 2.3509886e-38
0.034965213 0.79761505 -0.035269909 2.3509886e-38
0.035243317 0.79764074 -0.035295013 2.3509886e-38
0.036655571 0.79772913 -0.035189006 2.3509886e-38
0.037582662 0.79778165 -0.035119865 2.3509886e-38
0.03844592 0.79747725 -0.035514887 2.3509886e-38
0.039426289 0.79743969 -0.035553396 2.3509886e-38
0.04084764 0.79754496 -0.035394166 2.3509886e-38
0.041524298 0.79743594 -0.035496768 2.3509886e-38
0.042203974 0.7974425 -0.035445113 2.3509886e-38
0.043564957 0.79716623 -0.035690345 2.3509886e-38
0.044908844 0.79705489 -0.035702426 2.3509886e-38
0.04565778 0.79732573 -0.035281625 2.3509886e-38
0.046270311 0.79700291 -0.035595987 2.3509886e-38
-0.084458351 0.74328363 -0.034254361 2.3509886e-38
-0.083411738 0.74335003 -0.034450047 2.3509886e-38
-0.082517222 0.74346238 -0.03449117 2.3509886e-38
-0.081529789 0.74375755 -0.034399152 2.3509886e-38
-0.080283664 0.74381518 -0.034849714 2.3509886e-38
0.089518048 0.74388564 -0.034268171 2.3509886e-38
-0.080549046 0.74421066 -0.034328695 2.3509886e-38
-0.079499885 0.7444492 -0.034484375 2.3509886e-38
-0.078887567 0.74491739 -0.034303181 2.3509886e-38
0.088564515 0.74445766 -0.034517925 2.3509886e-38
-0.078460783 0.74538851 -0.034183711 2.3509886e-38
-0.07756649 0.7454136 -0.034591198 2.3509886e-38
-0.076645158 0.74569893 -0.03492118 2.3509886e-38
0.087555602 0.74500012 -0.034815669 2.3509886e-38
-0.077083603 0.74622834 -0.034151733 2.3509886e-38
-0.076263182 0.74627811 -0.034685977 2.3509886e-38
-0.075429022 0.74677545 -0.034976047 2.3509886e-38
0.085964933 0.7466796 -0.034776077 2.3509886e-38
0.086766511 0.7466023 -0.034276504 2.3509886e-38
-0.076111138 0.74706715 -0.034208715 2.3509886e-38
-0.075479865 0.74727577 -0.034544736 2.3509886e-38
0.084828071 0.74745613 -0.034981336 2.3509886e-38
0.08566352 0.74728203 -0.034570441 2.3509886e-38
0.086386092 0.74724585 -0.034116883 2.3509886e-38
-0.074466676 0.7485404 -0.034456536 2.3509886e-38
-0.073756672 0.74871951 -0.034871433 2.3509886e-38
0.083641537 0.74874175 -0.034965608 2.3509886e-38
0.0844514 0.74876451 -0.034373917 2.3509886e-38
0.085311159 0.74838781 -0.034053355 2.3509886e-38
-0.074309617 0.74912935 -0.034185924 2.3509886e-38
-0.073595136 0.74935079 -0.034565803 2.3509886e-38
0.083277546 0.74940825 -0.034772079 2.3509886e-38
0.084189184 0.74910945 -0.034356527 2.3509886e-38
-0.073397398 0.750018 -0.034339961 2.3509886e-38
-0.072727561 0.75058073 -0.034650289 2.3509886e-38
0.081978939 0.75092274 -0.034713034 2.3509886e-38
-0.072543845 0.7516914 -0.034303945 2.3509886e-38
0.081613578 0.75172275 -0.034477375 2.3509886e-38
0.082478404 0.75116491 -0.034196675 2.3509886e-38
-0.072399318 0.75218254 -0.034152091 2.3509886e-38
-0.071857087 0.75245535 -0.03456622 2.3509886e-38
0.080616072 0.75236988 -0.034833625 2.3509886e-38
0.081035547 0.75264275 -0.034343071 2.3509886e-38
-0.071795963 0.75398165 -0.034363024 2.3509886e-38
0.080526009 0.75369382 -0.034140054 2.3509886e-38
-0.071509711 0.75453746 -0.034464836 2.3509886e-38
0.07888072 0.75446522 -0.03498318 2.3509886e-38
0.07937599 0.75420904 -0.034751523 2.3509886e-38
-0.071053579 0.75514972 -0.034800436 2.3509886e-38
0.078518964 0.75522614 -0.034889117 2.3509886e-38
0.079267666 0.75571597 -0.034029264 2.3509886e-38
-0.071197666 0.75681645 -0.034294225 2.3509886e-38
0.077906132 0.75627112 -0.034847725 2.3509886e-38
0.077409022 0.7576502 -0.034573544 2.3509886e-38
0.078179419 0.75723994 -0.034045544 2.3509886e-38
-0.070458069 0.75891984 -0.034714136 2.3509886e-38
0.076899558 0.75866151 -0.034508549 2.3509886e-38
0.07717897 0.75853014 -0.034354344 2.3509886e-38
-0.070318669 0.75973785 -0.034444574 2.3509886e-38
-0.069819815 0.75922793 -0.034978725 2.3509886e-38
0.07577014 0.75977302 -0.034968741 2.3509886e-38
0.076331899 0.75941914 -0.034685746 2.3509886e-38
0.077054821 0.75946063 -0.03405679 2.3509886e-38
-0.069969557 0.76072514 -0.034596529 2.3509886e-38
-0.070308119 0.76132846 -0.034185935 2.3509886e-38
-0.069656424 0.76145548 -0.034577109 2.3509886e-38
0.075607076 0.76137722 -0.034490407 2.3509886e-38
0.076126881 0.7614162 -0.034021087 2.3509886e-38
-0.069623336 0.76273751 -0.034548473 2.3509886e-38
0.074906006 0.76246369 -0.034693912 2.3509886e-38
0.075351171 0.76219523 -0.034284644 2.3509886e-38
-0.070265405 0.76324421 -0.034068204 2.3509886e-38
-0.069763266 0.76316059 -0.034002669 2.3509886e-38
0.074603975 0.76354712 -0.034567889 2.3509886e-38
-0.069410019 0.76453316 -0.034422152 2.3509886e-38
-0.068976134 0.76489294 -0.034937613 2.3509886e-38
0.07443592 0.76461685 -0.034356751 2.3509886e-38
-0.069512486 0.76544642 -0.034125425 2.3509886e-38
0.073814362 0.76516116 -0.034794658 2.3509886e-38
0.074209914 0.76548582 -0.034229383 2.3509886e-38
-0.069567434 0.76632661 -0.034444429 2.3509886e-38
-0.068782665 0.76678979 -0.034639064 2.3509886e-38
0.073349774 0.7663421 -0.034734279 2.3509886e-38
0.072662741 0.76776773 -0.034934558 2.3509886e-38
0.073354095 0.76728541 -0.034424804 2.3509886e-38
-0.068965986 0.76868737 -0.034251653 2.3509886e-38
0.072465584 0.7688117 -0.034785137 2.3509886e-38
-0.068553612 0.76942307 -0.034267586 2.3509886e-38
-0.068455189 0.77082598 -0.034750074 2.3509886e-38
0.071980566 0.77080196 -0.034695663 2.3509886e-38
0.072008573 0.77092218 -0.034505084 2.3509886e-38
-0.069100857 0.77111804 -0.034368444 2.3509886e-38
-0.068697259 0.77165073 -0.034313522 2.3509886e-38
0.072192959 0.77184606 -0.034042709 2.3509886e-38
-0.068209276 0.77276272 -0.034857973 2.3509886e-38
0.071566015 0.77236158 -0.034540579 2.3509886e-38
-0.068555206 0.77339989 -0.034502447 2.3509886e-38
-0.068221159 0.77467799 -0.034512941 2.3509886e-38
0.070913866 0.77453858 -0.034741014 2.3509886e-38
0.07117673 0.77406591 -0.034632023 2.3509886e-38
-0.067738622 0.77551305 -0.034782805 2.3509886e-38
-0.06810981 0.77653813 -0.03405799 2.3509886e-38
-0.067538299 0.77655208 -0.034717567 2.3509886e-38
0.070603698 0.77638996 -0.034364231 2.3509886e-38
0.069815628 0.77704006 -0.034996059 2.3509886e-38
-0.067140684 0.77854943 -0.034127925 2.3509886e-38
-0.066940427 0.77853179 -0.034644522 2.3509886e-38
0.069677092 0.77855992 -0.034727558 2.3509886e-38
-0.06657552 0.77976751 -0.03442508 2.3509886e-38
0.06949313 0.77964473 -0.03444491 2.3509886e-38
-0.066460259 0.78031689 -0.034357276 2.3509886e-38
0.068861246 0.78054172 -0.034811664 2.3509886e-38
0.06957411 0.78025341 -0.034163348 2.3509886e-38
-0.066036656 0.78119326 -0.034521054 2.3509886e-38
-0.06549862 0.78156048 -0.034999404 2.3509886e-38
0.068491928 0.78103757 -0.03499781 2.3509886e-38
0.069052115 0.78140843 -0.034193721 2.3509886e-38
-0.065102682 0.78286433 -0.034556922 2.3509886e-38
-0.064846545 0.78287965 -0.034696929 2.3509886e-38
0.068478309 0.78230697 -0.034352701 2.3509886e-38
-0.064579278 0.78368759 -0.034438457 2.3509886e-38
-0.063977286 0.78385037 -0.034779225 2.3509886e-38
0.067665443 0.78373301 -0.034504943 2.3509886e-38
-0.063525438 0.78452885 -0.034719341 2.3509886e-38
-0.062925659 0.78495371 -0.034747038 2.3509886e-38
0.066885866 0.78482413 -0.034732994 2.3509886e-38
0.067469075 0.78437412 -0.034365006 2.3509886e-38
-0.063148491 0.78561097 -0.034156539 2.3509886e-38
-0.06245954 0.78555769 -0.03474009 2.3509886e-38
0.066801079 0.78560835 -0.034385432 2.3509886e-38
0.067049392 0.78572667 -0.034071274 2.3509886e-38
-0.062140442 0.78611153 -0.034608584 2.3509886e-38
-0.061698098 0.78666019 -0.034328781 2.3509886e-38
-0.060732976 0.78679973 -0.034759246 2.3509886e-38
0.066029787 0.78651828 -0.034563154 2.3509886e-38
-0.060436275 0.78747779 -0.034513969 2.3509886e-38
-0.060278289 0.78806388 -0.034103319 2.3509886e-38
-0.059197921 0.78858846 -0.034434203 2.3509886e-38
-0.058110598 0.78889692 -0.034619357 2.3509886e-38
-0.057837714 0.78887939 -0.034710452 2.3509886e-38
0.065115511 0.78818613 -0.034339465 2.3509886e-38
-0.057194576 0.78960538 -0.03441361 2.3509886e-38
-0.056900542 0.78938299 -0.034585256 2.3509886e-38
0.06378904 0.78982538 -0.03434854 2.3509886e-38
0.064145871 0.78982031 -0.03406075 2.3509886e-38
-0.056123216 0.79027271 -0.034379281 2.3509886e-38
-0.055017523 0.79089922 -0.034158755 2.3509886e-38
0.062763765 0.79059482 -0.034584247 2.3509886e-38
-0.054620728 0.79109645 -0.034103841 2.3509886e-38
-0.051260538 0.79196751 -0.034300484 2.3509886e-38
-0.049979448 0.79197043 -0.034691602 2.3509886e-38
0.061427139 0.79163897 -0.034748994 2.3509886e-38
0.062117632 0.79140699 -0.034422766 2.3509886e-38
-0.049947277 0.79224175 -0.034464221 2.3509886e-38
-0.048675545 0.79219836 -0.034877215 2.3509886e-38
-0.047539901 0.79266977 -0.034547355 2.3509886e-38
-0.046209335 0.7928654 -0.034682907 2.3509886e-38
0.060773071 0.79228616 -0.034661766 2.3509886e-38
0.061302941 0.79239601 -0.034217123 2.3509886e-38
-0.04571496 0.79321492 -0.03419745 2.3509886e-38
-0.044225782 0.79325664 -0.034569353 2.3509886e-38
-0.04304409 0.7935496 -0.034460843 2.3509886e-38
-0.04271657 0.79330808 -0.034891218 2.3509886e-38
-0.041654032 0.79372483 -0.034544449 2.3509886e-38
-0.040334724 0.79382914 -0.034675676 2.3509886e-38
-0.03897306 0.79396635 -0.034778535 2.3509886e-38
0.058406055 0.79389441 -0.034694545 2.3509886e-38
0.059584931 0.79341066 -0.034453757 2.3509886e-38
-0.041533858 0.79410505 -0.034053046 2.3509886e-38
-0.040359773 0.79420769 -0.034153104 2.3509886e-38
-0.039199322 0.7942878 -0.034275588 2.3509886e-38
-0.038789161 0.79443169 -0.034186337 2.3509886e-38
-0.037615374 0.79435116 -0.034481321 2.3509886e-38
-0.036186531 0.79468173 -0.034239393 2.3509886e-38
-0.035090625 0.79462558 -0.034476016 2.3509886e-38
-0.034703936 0.79491776 -0.034100983 2.3509886e-38
-0.030692337 0.79484254 -0.034675073 2.3509886e-38
-0.029319199 0.7949186 -0.034720309 2.3509886e-38
0.055646315 0.79498261 -0.034989383 2.3509886e-38
0.056847487 0.79473317 -0.034663383 2.3509886e-38
0.057341851 0.79474854 -0.034431975 2.3509886e-38
0.058022335 0.79447287 -0.034323782 2.3509886e-38
-0.033330172 0.79500014 -0.034165405 2.3509886e-38
-0.031795226 0.7950384 -0.034286197 2.3509886e-38
-0.03041501 0.7951175 -0.034321196 2.3509886e-38
-0.029194022 0.79520404 -0.034326322 2.3509886e-38
-0.028873524 0.79518914 -0.034385767 2.3509886e-38
-0.027652122 0.79528588 -0.034396429 2.3509886e-38
-0.026111491 0.79543215 -0.034457631 2.3509886e-38
-0.025433682 0.79528552 -0.034821071 2.3509886e-38
-0.024055008 0.79540366 -0.034886107 2.3509886e-38
-0.022675086 0.79552269 -0.034949709 2.3509886e-38
-0.02196967 0.79584461 -0.034596 2.3509886e-38
-0.020589709 0.79599708 -0.034651611 2.3509886e-38
-0.019537551 0.79598683 -0.034882169 2.3509886e-38
0.054605763 0.79577655 -0.034652483 2.3509886e-38
0.055733871 0.79541469 -0.034534089 2.3509886e-38
-0.019208722 0.7961486 -0.034706004 2.3509886e-38
-0.018157454 0.79612088 -0.034974974 2.3509886e-38
-0.01742674 0.79648256 -0.034577832 2.3509886e-38
-0.016443716 0.79645735 -0.034817062 2.3509886e-38
-0.015352698 0.79671419 -0.034677174 2.3509886e-38
-0.014262197 0.79695821 -0.034561064 2.3509886e-38
-0.013674923 0.796785 -0.03493876 2.3509886e-38
-0.012288071 0.79694253 -0.034995016 2.3509886e-38
0.051569801 0.79657376 -0.034938004 2.3509886e-38
0.052735046 0.79660982 -0.034504499 2.3509886e-38
0.053194411 0.79640156 -0.034562699 2.3509886e-38
0.054350484 0.79602557 -0.034501597 2.3509886e-38
-0.012876962 0.79709911 -0.034639865 2.3509886e-38
-0.010096705 0.79735917 -0.034779914 2.3509886e-38
-0.0097539853 0.79748857 -0.03463342 2.3509886e-38
-0.008534098 0.79754055 -0.034776367 2.3509886e-38
-0.007304607 0.79759067 -0.034898948 2.3509886e-38
-0.0069766371 0.79769439 -0.034773383 2.3509886e-38
-0.0055842898 0.7977764 -0.034828849 2.3509886e-38
-0.0041899555 0.79784602 -0.034875765 2.3509886e-38
-0.0027942015 0.79790235 -0.034913611 2.3509886e-38
-0.0013970714 0.79794329 -0.034941129 2.3509886e-38
9.4246388e-07 0.79797 -0.034959007 2.3509886e-38
0.001399614 0.79798293 -0.034967627 2.3509886e-38
0.0027986018 0.79798752 -0.034970671 2.3509886e-38
0.0041978345 0.79798079 -0.034966175 2.3509886e-38
0.0055971863 0.79796106 -0.03495298 2.3509886e-38
0.0069963783 0.79794168 -0.03493996 2.3509886e-38
0.0085522402 0.79789221 -0.034955643 2.3509886e-38
0.0097944951 0.79789573 -0.034908831 2.3509886e-38
0.010105049 0.79786235 -0.034933463 2.3509886e-38
0.011347432 0.79786789 -0.034887437 2.3509886e-38
0.01248545 0.79781836 -0.034928761 2.3509886e-38
0.013991247 0.79782659 -0.034861088 2.3509886e-38
0.015540719 0.79783797 -0.034787592 2.3509886e-38
0.016680971 0.79776752 -0.034867093 2.3509886e-38
0.017529866 0.79781163 -0.03478159 2.3509886e-38
0.018335756 0.79783952 -0.034735411 2.3509886e-38
0.01961164 0.79781193 -0.034763057 2.3509886e-38
0.020107087 0.79783982 -0.034724351 2.3509886e-38
0.024124617 0.79780179 -0.034792699 2.3509886e-38
0.025179898 0.79778099 -0.034824718 2.3509886e-38
0.026578642 0.79779804 -0.034835581 2.3509886e-38
0.027675496 0.79777813 -0.034890372 2.3509886e-38
0.028173892 0.79778731 -0.034914531 2.3509886e-38
0.029267943 0.7978493 -0.034841821 2.3509886e-38
0.03066723 0.79787558 -0.034851581 2.3509886e-38
0.03195858 0.79792017 -0.03483009 2.3509886e-38
0.032174841 0.79788107 -0.034891564 2.3509886e-38
0.033466332 0.79792392 -0.034869075 2.3509886e-38
0.034865793 0.79794014 -0.034872316 2.3509886e-38
0.036265388 0.79795468 -0.034874674 2.3509886e-38
0.03766438 0.79795909 -0.034869399 2.3509886e-38
0.039167978 0.79792154 -0.034917731 2.3509886e-38
0.040564507 0.79791254 -0.034909803 2.3509886e-38
0.041857779 0.79794186 -0.034830216 2.3509886e-38
0.04275265 0.79788119 -0.034862768 2.3509886e-38
0.043250315 0.79790628 -0.034792818 2.3509886e-38
0.044639401 0.79786247 -0.034747928 2.3509886e-38
0.045929983 0.79786211 -0.034613095 2.3509886e-38
0.046256088 0.7977041 -0.034766421 2.3509886e-38
0.047519088 0.79767352 -0.034619503 2.3509886e-38
0.048475761 0.79748935 -0.034667637 2.3509886e-38
0.049359761 0.79763484 -0.034316935 2.3509886e-38
0.05030188 0.79738522 -0.03439673 2.3509886e-38
0.051777955 0.79722834 -0.034149148 2.3509886e-38
-0.0055624582 0.79820073 -0.034192193 2.3509886e-38
-0.0044347025 0.79832757 -0.034132626 2.3509886e-38
-0.0034698639 0.79832298 -0.034231946 2.3509886e-38
-0.0025056747 0.79832631 -0.034303799 2.3509886e-38
-0.0013746654 0.79841578 -0.034235537 2.3509886e-38
-0.00024201274 0.79848552 -0.034186728 2.3509886e-38
0.00028883008 0.79843467 -0.034276452 2.3509886e-38
0.0014220896 0.79849386 -0.034220509 2.3509886e-38
0.002557213 0.79852796 -0.034180906 2.3509886e-38
0.0035212608 0.79851115 -0.034190368 2.3509886e-38
0.0044836681 0.79851347 -0.034179691 2.3509886e-38
0.0056198034 0.79852474 -0.03414128 2.3509886e-38
0.0067577553 0.79851544 -0.034122575 2.3509886e-38
0.0072803842 0.79852402 -0.034087062 2.3509886e-38
0.0084182424 0.79851639 -0.034069452 2.3509886e-38
0.0095578479 0.79848796 -0.034071695 2.3509886e-38
0.010957638 0.79847324 -0.034045726 2.3509886e-38
0.012357068 0.79845947 -0.034020241 2.3509886e-38
0.021465592 0.79806745 -0.03439052 2.3509886e-38
0.026855927 0.79807532 -0.034438282 2.3509886e-38
0.028366022 0.79816508 -0.034349971 2.3509886e-38
0.030389678 0.79823709 -0.0343538 2.3509886e-38
0.031787921 0.79848677 -0.034064818 2.3509886e-38
0.032428857 0.79827076 -0.034347359 2.3509886e-38
0.034426652 0.79822469 -0.034466345 2.3509886e-38
0.036629427 0.79822791 -0.034481321 2.3509886e-38
0.037148423 0.79834837 -0.03433286 2.3509886e-38
0.038958687 0.7980032 -0.034809098 2.3509886e-38
0.040487412 0.79818487 -0.03457446 2.3509886e-38
0.041906405 0.79850245 -0.034118019 2.3509886e-38
0.043488536 0.79849428 -0.034016747 2.3509886e-38
0.0475231 0.79808408 -0.034114521 2.3509886e-38
-0.086829893 0.74373835 -0.033616308 2.3509886e-38
-0.085203648 0.74367434 -0.0335458 2.3509886e-38
-0.084373042 0.74379742 -0.03348748 2.3509886e-38
-0.082971424 0.74377614 -0.033905007 2.3509886e-38
-0.085777178 0.74400437 -0.033028577 2.3509886e-38
-0.083377175 0.74422848 -0.033344258 2.3509886e-38
-0.082398683 0.74409574 -0.03372743 2.3509886e-38
-0.081467219 0.7446987 -0.033390746 2.3509886e-38
-0.080516353 0.74461675 -0.033860713 2.3509886e-38
0.089525707 0.74471802 -0.033680096 2.3509886e-38
0.090383403 0.74418795 -0.033438392 2.3509886e-38
-0.080442227 0.74527615 -0.033207711 2.3509886e-38
-0.079421423 0.74539155 -0.033561625 2.3509886e-38
-0.078529336 0.74577767 -0.033660036 2.3509886e-38
0.088796891 0.74588865 -0.033390198 2.3509886e-38
0.089258179 0.74589282 -0.033090591 2.3509886e-38
-0.078679442 0.74646044 -0.033080667 2.3509886e-38
-0.077674374 0.74660116 -0.033563096 2.3509886e-38
-0.076871246 0.74686861 -0.033911582 2.3509886e-38
0.087580413 0.74659228 -0.033738341 2.3509886e-38
0.088564336 0.74630988 -0.033272978 2.3509886e-38
-0.07729774 0.74744743 -0.033188876 2.3509886e-38
-0.076548576 0.74737352 -0.033744466 2.3509886e-38
0.086510882 0.74751502 -0.033864751 2.3509886e-38
0.087358132 0.74767405 -0.033136599 2.3509886e-38
-0.076051719 0.74868315 -0.033175781 2.3509886e-38
-0.075418636 0.74877894 -0.033604927 2.3509886e-38
0.085544363 0.74881417 -0.033607505 2.3509886e-38
0.086492769 0.74823391 -0.033318479 2.3509886e-38
-0.075274669 0.74976152 -0.033041365 2.3509886e-38
-0.07462433 0.74976408 -0.033589765 2.3509886e-38
0.084529884 0.749722 -0.033731095 2.3509886e-38
0.085676223 0.74924266 -0.033244472 2.3509886e-38
-0.074490957 0.7503522 -0.033288002 2.3509886e-38
-0.073971964 0.75073683 -0.0335708 2.3509886e-38
0.083555296 0.75045347 -0.033904806 2.3509886e-38
0.084408917 0.75043344 -0.033295039 2.3509886e-38
-0.073538132 0.75149632 -0.033516068 2.3509886e-38
0.082574286 0.75184828 -0.033692367 2.3509886e-38
0.08329162 0.75101393 -0.033686593 2.3509886e-38
-0.073120475 0.75229764 -0.033498608 2.3509886e-38
-0.072648562 0.75286001 -0.03355879 2.3509886e-38
0.08158578 0.75269061 -0.033913713 2.3509886e-38
0.082538716 0.75251371 -0.033290092 2.3509886e-38
0.0831872 0.75207251 -0.033100091 2.3509886e-38
0.081694886 0.75375867 -0.03319969 2.3509886e-38
0.082055807 0.75341475 -0.033115532 2.3509886e-38
-0.073139705 0.75400275 -0.03300418 2.3509886e-38
-0.072188012 0.75430083 -0.033827856 2.3509886e-38
0.080544673 0.75432479 -0.033764228 2.3509886e-38
0.081196249 0.75423777 -0.033296395 2.3509886e-38
-0.072380692 0.75517273 -0.033413135 2.3509886e-38
-0.071885012 0.75564611 -0.033752441 2.3509886e-38
0.079738185 0.75574476 -0.033608001 2.3509886e-38
0.080669828 0.7552681 -0.033151612 2.3509886e-38
0.078980081 0.75663036 -0.033696633 2.3509886e-38
0.079640426 0.7567634 -0.033134162 2.3509886e-38
0.080091164 0.756172 -0.033099271 2.3509886e-38
-0.071643732 0.75727081 -0.033698972 2.3509886e-38
0.078559741 0.75749987 -0.033670008 2.3509886e-38
0.079051457 0.75726146 -0.033390563 2.3509886e-38
-0.071678132 0.75894821 -0.033224832 2.3509886e-38
0.078347087 0.75836706 -0.033460535 2.3509886e-38
0.07728029 0.75978351 -0.033721402 2.3509886e-38
0.078128919 0.75930089 -0.033193719 2.3509886e-38
-0.070791885 0.76062441 -0.033657216 2.3509886e-38
0.077208668 0.76097125 -0.033186208 2.3509886e-38
-0.071202099 0.76135492 -0.033111811 2.3509886e-38
-0.070634499 0.7612915 -0.03372534 2.3509886e-38
0.076591179 0.76160246 -0.033467706 2.3509886e-38
-0.070503272 0.76296145 -0.033549752 2.3509886e-38
0.075708263 0.76222366 -0.033971209 2.3509886e-38
0.076219872 0.7620371 -0.033644695 2.3509886e-38
-0.070326462 0.76350963 -0.033391397 2.3509886e-38
0.075517245 0.76350743 -0.03367202 2.3509886e-38
0.076048963 0.76363403 -0.033135466 2.3509886e-38
-0.069852136 0.76483935 -0.033438437 2.3509886e-38
0.074945919 0.76434022 -0.033940382 2.3509886e-38
0.075167149 0.7643429 -0.033715174 2.3509886e-38
-0.070255481 0.76542747 -0.033224914 2.3509886e-38
0.074927539 0.76586288 -0.033297267 2.3509886e-38
0.075086467 0.76510888 -0.033489209 2.3509886e-38
-0.070067585 0.76600802 -0.033324663 2.3509886e-38
-0.069493622 0.76733756 -0.033767786 2.3509886e-38
0.074534535 0.76708418 -0.033262774 2.3509886e-38
-0.069151476 0.76841056 -0.03362193 2.3509886e-38
0.073688656 0.76869476 -0.033490963 2.3509886e-38
-0.070076235 0.7694326 -0.033325907 2.3509886e-38
-0.069614209 0.76930225 -0.033293344 2.3509886e-38
0.073546335 0.76919389 -0.033420127 2.3509886e-38
-0.069495134 0.77057153 -0.033646282 2.3509886e-38
-0.068861261 0.77027351 -0.033634067 2.3509886e-38
0.072783634 0.77047813 -0.033780191 2.3509886e-38
-0.069205299 0.77154136 -0.033662073 2.3509886e-38
-0.069024161 0.77217203 -0.033191346 2.3509886e-38
0.072643168 0.77260756 -0.033340484 2.3509886e-38
-0.069259271 0.77378488 -0.033466823 2.3509886e-38
-0.068856306 0.77356392 -0.033893473 2.3509886e-38
0.071916535 0.77318937 -0.033978134 2.3509886e-38
0.072359428 0.77419287 -0.033063501 2.3509886e-38
-0.068551287 0.7752853 -0.033701926 2.3509886e-38
0.071841657 0.77559674 -0.03317982 2.3509886e-38
-0.068426087 0.77690983 -0.033089224 2.3509886e-38
-0.067893207 0.77660197 -0.033972606 2.3509886e-38
0.070939213 0.77672583 -0.03380435 2.3509886e-38
0.071440697 0.77639508 -0.033296689 2.3509886e-38
-0.068592958 0.77708 -0.033181768 2.3509886e-38
0.071253188 0.77792799 -0.033084188 2.3509886e-38
-0.067687929 0.77883714 -0.033255994 2.3509886e-38
0.070397861 0.77868623 -0.033728082 2.3509886e-38
-0.067358762 0.77952814 -0.033533517 2.3509886e-38
0.070361704 0.77921981 -0.033503242 2.3509886e-38
-0.067415826 0.78031468 -0.033131972 2.3509886e-38
-0.066817023 0.78062457 -0.033726264 2.3509886e-38
0.069749892 0.78099376 -0.033507586 2.3509886e-38
0.070148878 0.78046429 -0.033294603 2.3509886e-38
-0.067142956 0.78101581 -0.03333009 2.3509886e-38
-0.066645131 0.78141385 -0.033652052 2.3509886e-38
0.069327012 0.78151727 -0.033795401 2.3509886e-38
-0.065897107 0.78242588 -0.033765085 2.3509886e-38
0.069312453 0.78258538 -0.033283576 2.3509886e-38
-0.066097185 0.78314 -0.033135511 2.3509886e-38
-0.065412022 0.78346294 -0.033685379 2.3509886e-38
0.068394348 0.78362542 -0.033718865 2.3509886e-38
-0.064319484 0.7845192 -0.033860348 2.3509886e-38
0.067957684 0.78432441 -0.033816889 2.3509886e-38
0.068491697 0.78469056 -0.033021834 2.3509886e-38
-0.064045399 0.78582293 -0.033026326 2.3509886e-38
-0.063491456 0.78556472 -0.033755627 2.3509886e-38
0.06775523 0.78505278 -0.03368292 2.3509886e-38
-0.06249401 0.78675228 -0.033548519 2.3509886e-38
-0.062270284 0.78718042 -0.03331273 2.3509886e-38
-0.061210565 0.78746963 -0.033810444 2.3509886e-38
0.066044942 0.78766906 -0.0338054 2.3509886e-38
-0.060833979 0.78864366 -0.033154331 2.3509886e-38
-0.06008108 0.78909457 -0.033024207 2.3509886e-38
-0.058389693 0.78962487 -0.033573702 2.3509886e-38
0.064857811 0.78929377 -0.033810541 2.3509886e-38
0.065209843 0.78946155 -0.033340249 2.3509886e-38
-0.057298232 0.79032516 -0.033357807 2.3509886e-38
-0.056272347 0.79057729 -0.033908565 2.3509886e-38
-0.055966146 0.79082054 -0.033839628 2.3509886e-38
0.063552231 0.79069328 -0.033888586 2.3509886e-38
0.064691842 0.79033589 -0.03315194 2.3509886e-38
-0.05665243 0.79116988 -0.033032477 2.3509886e-38
-0.053473532 0.79162276 -0.033923063 2.3509886e-38
0.062192675 0.79192507 -0.033964306 2.3509886e-38
0.063308313 0.79138446 -0.033519283 2.3509886e-38
0.064186245 0.79104519 -0.033050269 2.3509886e-38
-0.051712092 0.79263145 -0.033163197 2.3509886e-38
-0.050410602 0.79285902 -0.03333072 2.3509886e-38
0.062487379 0.79264033 -0.033147633 2.3509886e-38
-0.049100511 0.7930938 -0.033499409 2.3509886e-38
-0.048289854 0.79314864 -0.033590421 2.3509886e-38
-0.047500562 0.79349178 -0.03340302 2.3509886e-38
-0.046691805 0.79343319 -0.033740476 2.3509886e-38
-0.045761526 0.79372239 -0.033563927 2.3509886e-38
-0.044429317 0.79372454 -0.033891745 2.3509886e-38
-0.043253839 0.79383653 -0.033980243 2.3509886e-38
-0.04290263 0.79394072 -0.033985738 2.3509886e-38
0.060720176 0.79337347 -0.033778064 2.3509886e-38
