# .PCD v.7 - Point Cloud Data file format
FIELDS x y z rgb imX imY
SIZE 4 4 4 4 4 4
TYPE F F F F F F
COUNT 1 1 1 1 1 1
WIDTH 851
HEIGHT 1
VIEWPOINT 0 0 0 1 0 0 0
POINTS 851
DATA ascii
-0.0049794666 0.70999998 0.0062243328 1.3274004e-38 316 235
-0.0037503797 0.713 0.0062506334 1.2444242e-38 317 235
-0.0025002533 0.713 0.0062506334 1.2076539e-38 318 235
-0.00125188 0.71399999 0.0062593995 1.1983984e-38 319 235
0 0.71600002 0.0062769335 1.1891792e-38 320 235
0.0012606466 0.71899998 0.0063032326 1.1799596e-38 321 235
0.0025212932 0.71899998 0.0063032326 1.1891073e-38 322 235
0.0037977197 0.722 0.0063295332 1.1798876e-38 323 235
0.0050706398 0.72299999 0.0063382997 1.170668e-38 324 235
0.0063558333 0.72500002 0.0063558333 1.170668e-38 325 235
0.0076480396 0.727 0.0063733663 1.1431888e-38 326 235
0.0089349858 0.72799999 0.0063821329 1.1431888e-38 327 235
0.010211413 0.72799999 0.0063821329 1.1339337e-38 328 235
0.011519399 0.73000002 0.0063996664 1.1339337e-38 329 235
0.012799333 0.73000002 0.0063996664 1.1338621e-38 330 235
0.014079267 0.73000002 0.0063996664 1.1430816e-38 331 235
0.01538024 0.73100001 0.006408433 1.1338621e-38 332 235
0.016661927 0.73100001 0.006408433 1.1430816e-38 333 235
0.017992707 0.73299998 0.0064259665 1.1155305e-38 334 235
0.019304199 0.73400003 0.006434733 1.1155305e-38 335 235
0.020591147 0.73400003 0.006434733 1.1063829e-38 336 235
0.021878093 0.73400003 0.006434733 1.1063829e-38 337 235
0.023165042 0.73400003 0.006434733 1.1062754e-38 338 235
0.024451986 0.73400003 0.006434733 1.1062754e-38 339 235
0.025738932 0.73400003 0.006434733 1.1063476e-38 340 235
0.02702588 0.73400003 0.006434733 1.1063476e-38 341 235
0.028312827 0.73400003 0.006434733 1.1063476e-38 342 235
0.029599773 0.73400003 0.006434733 1.1063476e-38 343 235
0.030886721 0.73400003 0.006434733 1.1246069e-38 344 235
0.032173667 0.73400003 0.006434733 1.1246069e-38 345 235
0.033460613 0.73400003 0.006434733 1.1063478e-38 346 235
0.03474756 0.73400003 0.006434733 1.0970924e-38 347 235
0.036034506 0.73400003 0.006434733 1.0787612e-38 348 235
0.037321456 0.73400003 0.006434733 1.0879807e-38 349 235
0.038608398 0.73400003 0.006434733 1.0972359e-38 350 235
0.039840993 0.73299998 0.0064259665 1.0972359e-38 351 235
0.041126184 0.73299998 0.0064259665 1.0972722e-38 352 235
0.042411376 0.73299998 0.0064259665 1.0972722e-38 353 235
0.043577347 0.73100001 0.006408433 1.106492e-38 354 235
0.044859033 0.73100001 0.006408433 1.1157117e-38 355 235
0.046077598 0.73000002 0.0063996664 1.1524101e-38 356 235
0.047357533 0.73000002 0.0063996664 1.1616296e-38 357 235
0.048504211 0.72799999 0.0063821329 1.1525545e-38 358 235
0.049712259 0.727 0.0063733663 1.1617741e-38 359 235
0.050986931 0.727 0.0063733663 1.1801059e-38 360 235
0.052117832 0.72500002 0.0063558333 1.1893254e-38 361 235
0.053241719 0.72299999 0.0063382997 1.1802858e-38 362 235
0.054509375 0.72299999 0.0063382997 1.1987249e-38 363 235
0.055699892 0.722 0.0063295332 1.2079801e-38 364 235
0.056808002 0.72000003 0.0063120001 1.2263832e-38 365 235
0.057989739 0.71899998 0.0063032326 1.2356382e-38 366 235
0.059085581 0.71700001 0.0062857 1.2448578e-38 367 235
0.06025856 0.71600002 0.0062769335 1.2448575e-38 368 235
0.061256204 0.713 0.0062506334 1.2541129e-38 369 235
0.062331002 0.71100003 0.0062330998 1.2633688e-38 370 235
0.063488193 0.70999998 0.0062243328 1.3002831e-38 371 235
0.064733058 0.70999998 0.0062243328 1.3832234e-38 372 235
0.065792084 0.708 0.0062067998 1.4569799e-38 373 235
0.067033432 0.708 0.0062067998 1.5394502e-38 374 235
0.068274796 0.708 0.0062067998 1.4472546e-38 375 235
-0.0098747732 0.704 0.0049373866 1.327363e-38 312 236
-0.0086404262 0.704 0.0049373866 1.4748762e-38 313 236
-0.0074060797 0.704 0.0049373866 1.5299064e-38 314 236
-0.0062243328 0.70999998 0.0049794666 1.4469302e-38 315 236
-0.0049794666 0.70999998 0.0049794666 1.2722624e-38 316 236
-0.0037503797 0.713 0.0050005065 1.1801028e-38 317 236
-0.0025002533 0.713 0.0050005065 1.1891789e-38 318 236
-0.00125188 0.71399999 0.0050075199 1.1799593e-38 319 236
0 0.71600002 0.0050215465 1.1798873e-38 320 236
0.0012606466 0.71899998 0.0050425865 1.1798873e-38 321 236
0.0025212932 0.71899998 0.0050425865 1.1890343e-38 322 236
0.0037977197 0.722 0.0050636264 1.1890343e-38 323 236
0.0050706398 0.72299999 0.0050706398 1.1614835e-38 324 236
0.0063733663 0.727 0.0050986931 1.1614835e-38 325 236
0.0076480396 0.727 0.0050986931 1.133969e-38 326 236
0.0089349858 0.72799999 0.0051057064 1.133969e-38 327 236
0.010211413 0.72799999 0.0051057064 1.1155305e-38 328 236
0.011519399 0.73000002 0.0051197335 1.1155305e-38 329 236
0.012799333 0.73000002 0.0051197335 1.1521933e-38 330 236
0.014098554 0.73100001 0.0051267464 1.1521933e-38 331 236
0.01538024 0.73100001 0.0051267464 1.1429734e-38 332 236
0.016707512 0.73299998 0.005140773 1.152193e-38 333 236
0.018017253 0.73400003 0.0051477868 1.1155305e-38 334 236
0.019304199 0.73400003 0.0051477868 1.106311e-38 335 236
0.020591147 0.73400003 0.0051477868 1.106311e-38 336 236
0.021878093 0.73400003 0.0051477868 1.0970914e-38 337 236
0.023228159 0.736 0.005161813 1.0970914e-38 338 236
0.024518613 0.736 0.005161813 1.0970914e-38 339 236
0.025809066 0.736 0.005161813 1.0971277e-38 340 236
0.02709952 0.736 0.005161813 1.0879082e-38 341 236
0.028312827 0.73400003 0.0051477868 1.0970558e-38 342 236
0.029599773 0.73400003 0.0051477868 1.1062754e-38 343 236
0.030970879 0.736 0.005161813 1.0970558e-38 344 236
0.032261331 0.736 0.005161813 1.0970558e-38 345 236
0.033551786 0.736 0.005161813 1.0879084e-38 346 236
0.03474756 0.73400003 0.0051477868 1.0879084e-38 347 236
0.036034506 0.73400003 0.0051477868 1.0879082e-38 348 236
0.037321456 0.73400003 0.0051477868 1.0879082e-38 349 236
0.038608398 0.73400003 0.0051477868 1.0880514e-38 350 236
0.039895348 0.73400003 0.0051477868 1.0880514e-38 351 236
0.041126184 0.73299998 0.005140773 1.0972712e-38 352 236
0.042411376 0.73299998 0.005140773 1.0972712e-38 353 236
0.043696571 0.73299998 0.005140773 1.0972359e-38 354 236
0.044859033 0.73100001 0.0051267464 1.1248586e-38 355 236
0.046077598 0.73000002 0.0051197335 1.1248586e-38 356 236
0.047357533 0.73000002 0.0051197335 1.1340783e-38 357 236
0.048637468 0.73000002 0.0051197335 1.152518e-38 358 236
0.049780637 0.72799999 0.0051057064 1.152518e-38 359 236
0.050986931 0.727 0.0050986931 1.1800337e-38 360 236
0.052261602 0.727 0.0050986931 1.1892533e-38 361 236
0.053388998 0.72500002 0.0050846669 1.1893252e-38 362 236
0.054509375 0.72299999 0.0050706398 1.2078003e-38 363 236
0.055699892 0.722 0.0050636264 1.1987602e-38 364 236
0.056965802 0.722 0.0050636264 1.2079798e-38 365 236
0.058070403 0.72000003 0.0050496003 1.2264182e-38 366 236
0.059085581 0.71700001 0.0050285598 1.2356379e-38 367 236
0.06025856 0.71600002 0.0050215465 1.2447856e-38 368 236
0.061084379 0.71100003 0.0049864799 1.2540411e-38 369 236
0.062243331 0.70999998 0.0049794666 1.2541492e-38 370 236
0.063309364 0.708 0.0049654399 1.2633688e-38 371 236
0.06455072 0.708 0.0049654399 1.3003549e-38 372 236
0.065699153 0.70700002 0.0049584266 1.3648919e-38 373 236
0.066938758 0.70700002 0.0049584266 1.5027522e-38 374 236
0.068178371 0.70700002 0.0049584266 1.4842771e-38 375 236
-0.0098747732 0.704 0.0037030398 1.2998838e-38 312 237
-0.0086404262 0.704 0.0037030398 1.4750915e-38 313 237
-0.0074060797 0.704 0.0037030398 1.5116471e-38 314 237
-0.0061980332 0.70700002 0.0037188199 1.3733536e-38 315 237
-0.0049794666 0.70999998 0.0037345996 1.2353843e-38 316 237
-0.0037503797 0.713 0.0037503797 1.1801028e-38 317 237
-0.0025002533 0.713 0.0037503797 1.1891422e-38 318 237
-0.00125188 0.71399999 0.0037556398 1.1799226e-38 319 237
0 0.71600002 0.00376616 1.1890345e-38 320 237
0.00125714 0.71700001 0.0037714199 1.1705956e-38 321 237
0.0025212932 0.71899998 0.0037819401 1.1797428e-38 322 237
0.0037977197 0.722 0.0037977197 1.1797428e-38 323 237
0.0050846669 0.72500002 0.0038135003 1.1522636e-38 324 237
0.0063733663 0.727 0.0038240198 1.1522636e-38 325 237
0.0076585598 0.72799999 0.0038292799 1.1246772e-38 326 237
0.0089349858 0.72799999 0.0038292799 1.1246772e-38 327 237
0.010239467 0.73000002 0.0038397999 1.1338615e-38 328 237
0.011519399 0.73000002 0.0038397999 1.1154224e-38 329 237
0.012799333 0.73000002 0.0038397999 1.1429732e-38 330 237
0.014098554 0.73100001 0.00384506 1.12457e-38 331 237
0.01538024 0.73100001 0.00384506 1.12457e-38 332 237
0.016707512 0.73299998 0.0038555798 1.12457e-38 333 237
0.018017253 0.73400003 0.0038608401 1.1246056e-38 334 237
0.019304199 0.73400003 0.0038608401 1.1153859e-38 335 237
0.020591147 0.73400003 0.0038608401 1.0970909e-38 336 237
0.021937706 0.736 0.0038713599 1.0878712e-38 337 237
0.023228159 0.736 0.0038713599 1.1062024e-38 338 237
0.024518613 0.736 0.0038713599 1.1062024e-38 339 237
0.025809066 0.736 0.0038713599 1.0970909e-38 340 237
0.02709952 0.736 0.0038713599 1.0878712e-38 341 237
0.028389972 0.736 0.0038713599 1.1062027e-38 342 237
0.029680425 0.736 0.0038713599 1.1062027e-38 343 237
0.030970879 0.736 0.0038713599 1.1062029e-38 344 237
0.032261331 0.736 0.0038713599 1.1062029e-38 345 237
0.033551786 0.736 0.0038713599 1.0695046e-38 346 237
0.034842238 0.736 0.0038713599 1.0695046e-38 347 237
0.036132693 0.736 0.0038713599 1.0878358e-38 348 237
0.037423145 0.736 0.0038713599 1.0786163e-38 349 237
0.038608398 0.73400003 0.0038608401 1.0696122e-38 350 237
0.039895348 0.73400003 0.0038608401 1.0696122e-38 351 237
0.041182294 0.73400003 0.0038608401 1.0696122e-38 352 237
0.042411376 0.73299998 0.0038555798 1.0696122e-38 353 237
0.043696571 0.73299998 0.0038555798 1.0880158e-38 354 237
0.044859033 0.73100001 0.00384506 1.0972712e-38 355 237
0.046077598 0.73000002 0.0038397999 1.0880877e-38 356 237
0.047357533 0.73000002 0.0038397999 1.1065627e-38 357 237
0.048637468 0.73000002 0.0038397999 1.1340786e-38 358 237
0.049780637 0.72799999 0.0038292799 1.1340786e-38 359 237
0.051057063 0.72799999 0.0038292799 1.1707776e-38 360 237
0.052261602 0.727 0.0038240198 1.1799971e-38 361 237
0.053388998 0.72500002 0.0038135003 1.1801406e-38 362 237
0.054509375 0.72299999 0.0038029798 1.1893602e-38 363 237
0.055777039 0.72299999 0.0038029798 1.1986874e-38 364 237
0.056965802 0.722 0.0037977197 1.2079069e-38 365 237
0.058070403 0.72000003 0.0037872 1.1896473e-38 366 237
0.059250388 0.71899998 0.0037819401 1.1988669e-38 367 237
0.06025856 0.71600002 0.00376616 1.2356015e-38 368 237
0.061084379 0.71100003 0.0037398601 1.2448212e-38 369 237
0.062243331 0.70999998 0.0037345996 1.2724442e-38 370 237
0.063309364 0.708 0.00372408 1.2816637e-38 371 237
0.064459547 0.70700002 0.0037188199 1.3185424e-38 372 237
0.065606222 0.70599997 0.0037135598 1.3646401e-38 373 237
0.066844068 0.70599997 0.0037135598 1.4476513e-38 374 237
0.06808193 0.70599997 0.0037135598 1.4660544e-38 375 237
-0.02788852 0.72299999 0.0025353199 1.3273264e-38 298 238
-0.026620859 0.72299999 0.0025353199 1.336546e-38 299 238
-0.025318133 0.722 0.0025318132 1.336546e-38 300 238
-0.024052227 0.722 0.0025318132 1.336546e-38 301 238
-0.022723202 0.72000003 0.0025248001 1.3549491e-38 302 238
-0.021460801 0.72000003 0.0025248001 1.3549491e-38 303 238
-0.011109119 0.704 0.0024686933 1.3181782e-38 311 238
-0.0098747732 0.704 0.0024686933 1.2998836e-38 312 238
-0.0086404262 0.704 0.0024686933 1.4934944e-38 313 238
-0.0074060797 0.704 0.0024686933 1.4933877e-38 314 238
-0.0061980332 0.70700002 0.0024792133 1.2997769e-38 315 238
-0.0049794666 0.70999998 0.0024897333 1.2444595e-38 316 238
-0.0037503797 0.713 0.0025002533 1.216765e-38 317 238
-0.0025002533 0.713 0.0025002533 1.1799226e-38 318 238
-0.00125188 0.71399999 0.0025037599 1.1614835e-38 319 238
0 0.71600002 0.0025107733 1.1614479e-38 320 238
0.00125714 0.71700001 0.0025142799 1.1522283e-38 321 238
0.0025212932 0.71899998 0.0025212932 1.1521561e-38 322 238
0.0037977197 0.722 0.0025318132 1.1521561e-38 323 238
0.0050846669 0.72500002 0.0025423334 1.1429364e-38 324 238
0.0063821329 0.72799999 0.0025528532 1.1429364e-38 325 238
0.0076585598 0.72799999 0.0025528532 1.1246056e-38 326 238
0.0089349858 0.72799999 0.0025528532 1.1246056e-38 327 238
0.010239467 0.73000002 0.0025598668 1.0970909e-38 328 238
0.011519399 0.73000002 0.0025598668 1.0970909e-38 329 238
0.012799333 0.73000002 0.0025598668 1.115458e-38 330 238
0.014098554 0.73100001 0.0025633732 1.1062024e-38 331 238
0.015422319 0.73299998 0.0025703865 1.1153859e-38 332 238
0.016730307 0.73400003 0.0025738934 1.1153859e-38 333 238
0.018017253 0.73400003 0.0025738934 1.1061305e-38 334 238
0.019356798 0.736 0.0025809065 1.1153859e-38 335 238
0.020647252 0.736 0.0025809065 1.0877993e-38 336 238
0.021937706 0.736 0.0025809065 1.0877993e-38 337 238
0.023228159 0.736 0.0025809065 1.0877993e-38 338 238
0.024518613 0.736 0.0025809065 1.0877993e-38 339 238
0.025809066 0.736 0.0025809065 1.0877993e-38 340 238
0.02709952 0.736 0.0025809065 1.0785797e-38 341 238
0.028389972 0.736 0.0025809065 1.0877993e-38 342 238
0.029680425 0.736 0.0025809065 1.0877993e-38 343 238
0.030970879 0.736 0.0025809065 1.0786519e-38 344 238
0.032261331 0.736 0.0025809065 1.0786519e-38 345 238
0.033551786 0.736 0.0025809065 1.0602851e-38 346 238
0.034842238 0.736 0.0025809065 1.0510655e-38 347 238
0.036132693 0.736 0.0025809065 1.0693964e-38 348 238
0.037423145 0.736 0.0025809065 1.0693964e-38 349 238
0.038713597 0.736 0.0025809065 1.0602848e-38 350 238
0.040004052 0.736 0.0025809065 1.0602848e-38 351 238
0.041182294 0.73400003 0.0025738934 1.0511018e-38 352 238
0.042469237 0.73400003 0.0025738934 1.0511018e-38 353 238
0.043696571 0.73299998 0.0025703865 1.0603216e-38 354 238
0.044981763 0.73299998 0.0025703865 1.0787968e-38 355 238
0.046140719 0.73100001 0.0025633732 1.0788687e-38 356 238
0.047357533 0.73000002 0.0025598668 1.0880882e-38 357 238
0.048637468 0.73000002 0.0025598668 1.1156037e-38 358 238
0.049780637 0.72799999 0.0025528532 1.1248233e-38 359 238
0.051057063 0.72799999 0.0025528532 1.1339712e-38 360 238
0.052261602 0.727 0.0025493465 1.1523745e-38 361 238
0.053536277 0.727 0.0025493465 1.1432628e-38 362 238
0.054660168 0.72500002 0.0025423334 1.1801409e-38 363 238
0.055777039 0.72299999 0.0025353199 1.1710646e-38 364 238
0.057044696 0.72299999 0.0025353199 1.1802843e-38 365 238
0.058231708 0.722 0.0025318132 1.1712442e-38 366 238
0.059332799 0.72000003 0.0025248001 1.1712442e-38 367 238
0.060342718 0.71700001 0.0025142799 1.2263461e-38 368 238
0.061084379 0.71100003 0.0024932399 1.2263461e-38 369 238
0.062243331 0.70999998 0.0024897333 1.2447859e-38 370 238
0.063309364 0.708 0.00248272 1.2724086e-38 371 238
0.064459547 0.70700002 0.0024792133 1.2725165e-38 372 238
0.065420374 0.704 0.0024686933 1.3001752e-38 373 238
0.066654719 0.704 0.0024686933 1.4199925e-38 374 238
0.067889065 0.704 0.0024686933 1.4660544e-38 375 238
-0.029156178 0.72299999 0.0012676599 1.3088517e-38 297 239
-0.02788852 0.72299999 0.0012676599 1.2904849e-38 298 239
-0.026510401 0.72000003 0.0012624001 1.3181435e-38 299 239
-0.0251428 0.71700001 0.00125714 1.3274713e-38 300 239
-0.02388566 0.71700001 0.00125714 1.3182158e-38 301 239
-0.022691639 0.71899998 0.0012606466 1.327363e-38 302 239
-0.021430992 0.71899998 0.0012606466 1.327363e-38 303 239
-0.020170346 0.71899998 0.0012606466 1.3458373e-38 304 239
-0.018857099 0.71700001 0.00125714 1.327398e-38 305 239
-0.017575413 0.71600002 0.0012553866 1.318035e-38 306 239
-0.016320027 0.71600002 0.0012553866 1.3364381e-38 307 239
-0.015085679 0.71700001 0.00125714 1.2998119e-38 308 239
-0.011109119 0.704 0.0012343467 1.3088514e-38 311 239
-0.0098747732 0.704 0.0012343467 1.2998838e-38 312 239
-0.0086649731 0.70599997 0.0012378532 1.5027142e-38 313 239
-0.0074271196 0.70599997 0.0012378532 1.465873e-38 314 239
-0.0062067998 0.708 0.00124136 1.2815176e-38 315 239
-0.0049794666 0.70999998 0.0012448666 1.2259848e-38 316 239
-0.0037503797 0.713 0.0012501266 1.1799229e-38 317 239
-0.0025002533 0.713 0.0012501266 1.170703e-38 318 239
-0.00125188 0.71399999 0.00125188 1.152228e-38 319 239
0 0.71600002 0.0012553866 1.1614116e-38 320 239
0.00125714 0.71700001 0.00125714 1.1429364e-38 321 239
0.0025212932 0.71899998 0.0012606466 1.1429364e-38 322 239
0.0037977197 0.722 0.0012659066 1.1429364e-38 323 239
0.0050846669 0.72500002 0.0012711667 1.1153857e-38 324 239
0.0063821329 0.72799999 0.0012764266 1.1153857e-38 325 239
0.0076585598 0.72799999 0.0012764266 1.106238e-38 326 239
0.0089349858 0.72799999 0.0012764266 1.106238e-38 327 239
0.010239467 0.73000002 0.0012799334 1.0878346e-38 328 239
0.011519399 0.73000002 0.0012799334 1.1062377e-38 329 239
0.012799333 0.73000002 0.0012799334 1.1244254e-38 330 239
0.014098554 0.73100001 0.0012816866 1.1244254e-38 331 239
0.015422319 0.73299998 0.0012851933 1.1335371e-38 332 239
0.016730307 0.73400003 0.0012869467 1.1427567e-38 333 239
0.018066347 0.736 0.0012904532 1.0968746e-38 334 239
0.019356798 0.736 0.0012904532 1.1060942e-38 335 239
0.020647252 0.736 0.0012904532 1.1060939e-38 336 239
0.021997318 0.73799998 0.0012939599 1.0968744e-38 337 239
0.023291279 0.73799998 0.0012939599 1.1060939e-38 338 239
0.024518613 0.736 0.0012904532 1.1060939e-38 339 239
0.025809066 0.736 0.0012904532 1.1060939e-38 340 239
0.02709952 0.736 0.0012904532 1.0968744e-38 341 239
0.028389972 0.736 0.0012904532 1.0969465e-38 342 239
0.029680425 0.736 0.0012904532 1.0969465e-38 343 239
0.031055039 0.73799998 0.0012939599 1.0602122e-38 344 239
0.032348998 0.73799998 0.0012939599 1.0602122e-38 345 239
0.033642959 0.73799998 0.0012939599 1.0693599e-38 346 239
0.034936916 0.73799998 0.0012939599 1.0601403e-38 347 239
0.036230877 0.73799998 0.0012939599 1.0601403e-38 348 239
0.037524838 0.73799998 0.0012939599 1.0601403e-38 349 239
0.038713597 0.736 0.0012904532 1.0602122e-38 350 239
0.040004052 0.736 0.0012904532 1.0602122e-38 351 239
0.041294504 0.736 0.0012904532 1.0602125e-38 352 239
0.042469237 0.73400003 0.0012869467 1.0602125e-38 353 239
0.043756187 0.73400003 0.0012869467 1.0601769e-38 354 239
0.044981763 0.73299998 0.0012851933 1.0786519e-38 355 239
0.046266954 0.73299998 0.0012851933 1.0878358e-38 356 239
0.047422405 0.73100001 0.0012816866 1.0970914e-38 357 239
0.048637468 0.73000002 0.0012799334 1.0970914e-38 358 239
0.0499174 0.73000002 0.0012799334 1.1155305e-38 359 239
0.051057063 0.72799999 0.0012764266 1.1154952e-38 360 239
0.052333489 0.72799999 0.0012764266 1.1431179e-38 361 239
0.053536277 0.727 0.0012746733 1.1523733e-38 362 239
0.054810952 0.727 0.0012746733 1.1708126e-38 363 239
0.055931333 0.72500002 0.0012711667 1.1708842e-38 364 239
0.057044696 0.72299999 0.0012676599 1.1893592e-38 365 239
0.058231708 0.722 0.0012659066 1.171136e-38 366 239
0.059332799 0.72000003 0.0012624001 1.1803915e-38 367 239
0.060342718 0.71700001 0.00125714 1.2170902e-38 368 239
0.061084379 0.71100003 0.00124662 1.2170902e-38 369 239
0.062243331 0.70999998 0.0012448666 1.2538606e-38 370 239
0.063219935 0.70700002 0.0012396066 1.2815193e-38 371 239
0.064368367 0.70599997 0.0012378532 1.2907032e-38 372 239
0.065327443 0.70300001 0.0012325933 1.3091782e-38 373 239
0.066370681 0.70099998 0.0012290865 1.3646748e-38 374 239
0.067503333 0.69999999 0.0012273333 1.4199922e-38 375 239
0.068730667 0.69999999 0.0012273333 1.4934593e-38 376 239
-0.03156 0.72000003 -0 1.3456574e-38 295 240
-0.0302976 0.72000003 -0 1.3181435e-38 296 240
-0.029115854 0.722 -0 1.3458023e-38 297 240
-0.027849946 0.722 -0 1.3459826e-38 298 240
-0.026510401 0.72000003 -0 1.382825e-38 299 240
-0.0251428 0.71700001 -0 1.4655849e-38 300 240
-0.02388566 0.71700001 -0 1.4748044e-38 301 240
-0.02262852 0.71700001 -0 1.4839514e-38 302 240
-0.021430992 0.71899998 -0 1.4839514e-38 303 240
-0.020114239 0.71700001 -0 1.4472524e-38 304 240
-0.018857099 0.71700001 -0 1.4288493e-38 305 240
-0.017575413 0.71600002 -0 1.4011546e-38 306 240
-0.016320027 0.71600002 -0 1.391935e-38 307 240
-0.01506464 0.71600002 -0 1.373424e-38 308 240
-0.013809253 0.71600002 -0 1.3365457e-38 309 240
-0.012553867 0.71600002 -0 1.3364012e-38 310 240
-0.01129848 0.71600002 -0 1.3456208e-38 311 240
-0.0099028256 0.70599997 -0 1.3825714e-38 312 240
-0.0086404262 0.704 -0 1.5485234e-38 313 240
-0.0074060797 0.704 -0 1.4841679e-38 314 240
-0.0062243328 0.70999998 -0 1.2997766e-38 315 240
-0.0049864799 0.71100003 -0 1.2352044e-38 316 240
-0.0037503797 0.713 -0 1.1891424e-38 317 240
-0.0025002533 0.713 -0 1.1890345e-38 318 240
-0.00125188 0.71399999 -0 1.1521564e-38 319 240
0 0.71600002 -0 1.1429369e-38 320 240
0.00125714 0.71700001 -0 1.1429369e-38 321 240
0.0025212932 0.71899998 -0 1.1062024e-38 322 240
0.0037977197 0.722 -0 1.1062024e-38 323 240
0.0050846669 0.72500002 -0 1.1061305e-38 324 240
0.0063733663 0.727 -0 1.1061305e-38 325 240
0.0076585598 0.72799999 -0 1.1061305e-38 326 240
0.0089349858 0.72799999 -0 1.0969109e-38 327 240
0.010239467 0.73000002 -0 1.0785797e-38 328 240
0.01153518 0.73100001 -0 1.0785797e-38 329 240
0.012816866 0.73100001 -0 1.096839e-38 330 240
0.014137126 0.73299998 -0 1.096839e-38 331 240
0.01544336 0.73400003 -0 1.0876914e-38 332 240
0.016730307 0.73400003 -0 1.0876914e-38 333 240
0.018066347 0.736 -0 1.0784718e-38 334 240
0.019356798 0.736 -0 1.0876914e-38 335 240
0.020703359 0.73799998 -0 1.0784718e-38 336 240
0.021997318 0.73799998 -0 1.0876914e-38 337 240
0.023291279 0.73799998 -0 1.0784718e-38 338 240
0.024585238 0.73799998 -0 1.0784718e-38 339 240
0.025879199 0.73799998 -0 1.0876195e-38 340 240
0.027173158 0.73799998 -0 1.0876195e-38 341 240
0.028467119 0.73799998 -0 1.0784718e-38 342 240
0.029761078 0.73799998 -0 1.0876914e-38 343 240
0.031055039 0.73799998 -0 1.0326258e-38 344 240
0.032348998 0.73799998 -0 1.0326258e-38 345 240
0.033642959 0.73799998 -0 1.0508854e-38 346 240
0.034984261 0.73900002 -0 1.0508854e-38 347 240
0.036230877 0.73799998 -0 1.0508857e-38 348 240
0.037524838 0.73799998 -0 1.0508857e-38 349 240
0.038818799 0.73799998 -0 1.0234065e-38 350 240
0.040004052 0.736 -0 1.0234065e-38 351 240
0.041294504 0.736 -0 1.0326261e-38 352 240
0.042584959 0.736 -0 1.0326261e-38 353 240
0.043756187 0.73400003 -0 1.0235144e-38 354 240
0.045043133 0.73400003 -0 1.0235144e-38 355 240
0.046266954 0.73299998 -0 1.0510299e-38 356 240
0.04755215 0.73299998 -0 1.0602853e-38 357 240
0.048704091 0.73100001 -0 1.0878364e-38 358 240
0.0499174 0.73000002 -0 1.0970561e-38 359 240
0.051197331 0.73000002 -0 1.0878731e-38 360 240
0.052333489 0.72799999 -0 1.1063122e-38 361 240
0.053609919 0.72799999 -0 1.1156037e-38 362 240
0.054810952 0.727 -0 1.1340788e-38 363 240
0.055931333 0.72500002 -0 1.1157836e-38 364 240
0.057202499 0.72500002 -0 1.1342586e-38 365 240
0.058312356 0.72299999 -0 1.1434782e-38 366 240
0.059497613 0.722 -0 1.171101e-38 367 240
0.060511041 0.71899998 -0 1.171101e-38 368 240
0.061256204 0.713 -0 1.1803206e-38 369 240
0.062243331 0.70999998 -0 1.2171268e-38 370 240
0.063219935 0.70700002 -0 1.2263464e-38 371 240
0.064186029 0.704 -0 1.2448212e-38 372 240
0.065141588 0.70099998 -0 1.2448212e-38 373 240
0.066370681 0.70099998 -0 1.3370161e-38 374 240
0.06731046 0.69800001 -0 1.4107726e-38 375 240
0.068436109 0.69700003 -0 1.493604e-38 376 240
0.069358356 0.69400001 -0 1.3460908e-38 377 240
-0.032776814 0.71899998 -0.0012606466 1.3642783e-38 294 241
-0.031516165 0.71899998 -0.0012606466 1.4380348e-38 295 241
-0.0302976 0.72000003 -0.0012624001 1.4567263e-38 296 241
-0.029035201 0.72000003 -0.0012624001 1.5120436e-38 297 241
-0.027734226 0.71899998 -0.0012606466 1.5581412e-38 298 241
-0.02639994 0.71700001 -0.00125714 1.5765803e-38 299 241
-0.0251428 0.71700001 -0.00125714 1.6500124e-38 300 241
-0.02388566 0.71700001 -0.00125714 1.6500124e-38 301 241
-0.02262852 0.71700001 -0.00125714 1.6591957e-38 302 241
-0.021371379 0.71700001 -0.00125714 1.6499402e-38 303 241
-0.020114239 0.71700001 -0.00125714 1.6133494e-38 304 241
-0.0188308 0.71600002 -0.0012553866 1.5949103e-38 305 241
-0.017575413 0.71600002 -0.0012553866 1.5672509e-38 306 241
-0.016320027 0.71600002 -0.0012553866 1.5304086e-38 307 241
-0.01506464 0.71600002 -0.0012553866 1.5301565e-38 308 241
-0.013809253 0.71600002 -0.0012553866 1.520937e-38 309 241
-0.012553867 0.71600002 -0.0012553866 1.5299052e-38 310 241
-0.01129848 0.71600002 -0.0012553866 1.5022105e-38 311 241
-0.0099028256 0.70599997 -0.0012378532 1.4471454e-38 312 241
-0.0085667865 0.69800001 -0.0012238267 1.5577443e-38 313 241
-0.0073429602 0.69800001 -0.0012238267 1.5117543e-38 314 241
-0.0062243328 0.70999998 -0.0012448666 1.2904849e-38 315 241
-0.0049864799 0.71100003 -0.00124662 1.207581e-38 316 241
-0.0037556398 0.71399999 -0.00125188 1.1799223e-38 317 241
-0.0025037599 0.71399999 -0.00125188 1.1705958e-38 318 241
-0.0012553866 0.71600002 -0.0012553866 1.1429013e-38 319 241
0 0.71700001 -0.00125714 1.1612681e-38 320 241
0.0012606466 0.71899998 -0.0012606466 1.1336453e-38 321 241
0.0025212932 0.71899998 -0.0012606466 1.1244973e-38 322 241
0.0037977197 0.722 -0.0012659066 1.1244973e-38 323 241
0.0050846669 0.72500002 -0.0012711667 1.0969465e-38 324 241
0.0063733663 0.727 -0.0012746733 1.0969465e-38 325 241
0.0076585598 0.72799999 -0.0012764266 1.0969462e-38 326 241
0.0089595336 0.73000002 -0.0012799334 1.0877267e-38 327 241
0.010239467 0.73000002 -0.0012799334 1.0877264e-38 328 241
0.01153518 0.73100001 -0.0012816866 1.0877264e-38 329 241
0.012816866 0.73100001 -0.0012816866 1.1059857e-38 330 241
0.014156413 0.73400003 -0.0012869467 1.1059857e-38 331 241
0.01544336 0.73400003 -0.0012869467 1.0876548e-38 332 241
0.016775893 0.736 -0.0012904532 1.0784351e-38 333 241
0.018066347 0.736 -0.0012904532 1.0783996e-38 334 241
0.019409399 0.73799998 -0.0012939599 1.0783996e-38 335 241
0.020703359 0.73799998 -0.0012939599 1.0785071e-38 336 241
0.021997318 0.73799998 -0.0012939599 1.0785071e-38 337 241
0.023291279 0.73799998 -0.0012939599 1.060068e-38 338 241
0.024585238 0.73799998 -0.0012939599 1.060068e-38 339 241
0.025879199 0.73799998 -0.0012939599 1.0967309e-38 340 241
0.027173158 0.73799998 -0.0012939599 1.0967309e-38 341 241
0.028467119 0.73799998 -0.0012939599 1.0783999e-38 342 241
0.029801406 0.73900002 -0.0012957134 1.0783999e-38 343 241
0.03109712 0.73900002 -0.0012957134 1.0325539e-38 344 241
0.032392833 0.73900002 -0.0012957134 1.0325539e-38 345 241
0.033688545 0.73900002 -0.0012957134 1.0508134e-38 346 241
0.034984261 0.73900002 -0.0012957134 1.0508134e-38 347 241
0.036279973 0.73900002 -0.0012957134 1.050849e-38 348 241
0.037575684 0.73900002 -0.0012957134 1.0600687e-38 349 241
0.038818799 0.73799998 -0.0012939599 1.0233698e-38 350 241
0.040112756 0.73799998 -0.0012939599 1.0325895e-38 351 241
0.041406717 0.73799998 -0.0012939599 1.041701e-38 352 241
0.042584959 0.736 -0.0012904532 1.041701e-38 353 241
0.043875411 0.736 -0.0012904532 1.0326614e-38 354 241
0.045043133 0.73400003 -0.0012869467 1.0326614e-38 355 241
0.046330083 0.73400003 -0.0012869467 1.0601403e-38 356 241
0.04755215 0.73299998 -0.0012851933 1.0693599e-38 357 241
0.048704091 0.73100001 -0.0012816866 1.0876914e-38 358 241
0.0499174 0.73000002 -0.0012799334 1.0969109e-38 359 241
0.051197331 0.73000002 -0.0012799334 1.1244623e-38 360 241
0.052333489 0.72799999 -0.0012764266 1.1429015e-38 361 241
0.053609919 0.72799999 -0.0012764266 1.115495e-38 362 241
0.054886345 0.72799999 -0.0012764266 1.1339339e-38 363 241
0.056085624 0.727 -0.0012746733 1.1248942e-38 364 241
0.057202499 0.72500002 -0.0012711667 1.1433334e-38 365 241
0.058312356 0.72299999 -0.0012676599 1.152553e-38 366 241
0.059497613 0.722 -0.0012659066 1.1617726e-38 367 241
0.060511041 0.71899998 -0.0012606466 1.1894311e-38 368 241
0.061256204 0.713 -0.0012501266 1.1986508e-38 369 241
0.062331002 0.71100003 -0.00124662 1.2354212e-38 370 241
0.063219935 0.70700002 -0.0012396066 1.2446407e-38 371 241
0.064186029 0.704 -0.0012343467 1.2447129e-38 372 241
0.065141588 0.70099998 -0.0012290865 1.2539325e-38 373 241
0.066370681 0.70099998 -0.0012290865 1.3185774e-38 374 241
0.06731046 0.69800001 -0.0012238267 1.4015175e-38 375 241
0.068436109 0.69700003 -0.0012220733 1.4936042e-38 376 241
0.069358356 0.69400001 -0.0012168133 1.3553108e-38 377 241
0.07057517 0.69400001 -0.0012168133 1.2995971e-38 378 241
-0.033942781 0.71700001 -0.0025142799 1.3365823e-38 293 242
-0.032685637 0.71700001 -0.0025142799 1.4655493e-38 294 242
-0.031428497 0.71700001 -0.0025142799 1.5393058e-38 295 242
-0.030171359 0.71700001 -0.0025142799 1.6039872e-38 296 242
-0.028994869 0.71899998 -0.0025212932 1.6224263e-38 297 242
-0.027657079 0.71700001 -0.0025142799 1.6317175e-38 298 242
-0.02639994 0.71700001 -0.0025142799 1.6133144e-38 299 242
-0.0251428 0.71700001 -0.0025142799 1.6316809e-38 300 242
-0.023852346 0.71600002 -0.0025107733 1.6316809e-38 301 242
-0.022596961 0.71600002 -0.0025107733 1.6316812e-38 302 242
-0.021341572 0.71600002 -0.0025107733 1.6316812e-38 303 242
-0.020086186 0.71600002 -0.0025107733 1.6041298e-38 304 242
-0.0188308 0.71600002 -0.0025107733 1.5949103e-38 305 242
-0.017526319 0.71399999 -0.0025037599 1.604057e-38 306 242
-0.016274439 0.71399999 -0.0025037599 1.5856537e-38 307 242
-0.015022559 0.71399999 -0.0025037599 1.5947291e-38 308 242
-0.01377068 0.71399999 -0.0025037599 1.5947291e-38 309 242
-0.012501267 0.713 -0.0025002533 1.5945859e-38 310 242
-0.011251139 0.713 -0.0025002533 1.5761469e-38 311 242
-0.010001013 0.713 -0.0025002533 1.4933158e-38 312 242
-0.0085667865 0.69800001 -0.0024476533 1.5393778e-38 313 242
-0.0073429602 0.69800001 -0.0024476533 1.5209736e-38 314 242
-0.0062593995 0.71399999 -0.0025037599 1.3273627e-38 315 242
-0.0050075199 0.71399999 -0.0025037599 1.2258752e-38 316 242
-0.0037556398 0.71399999 -0.0025037599 1.189033e-38 317 242
-0.0025107733 0.71600002 -0.0025107733 1.1614116e-38 318 242
-0.00125714 0.71700001 -0.0025142799 1.1337169e-38 319 242
0 0.71700001 -0.0025142799 1.1337172e-38 320 242
0.0012606466 0.71899998 -0.0025212932 1.1244976e-38 321 242
0.0025212932 0.71899998 -0.0025212932 1.1060942e-38 322 242
0.0038029798 0.72299999 -0.0025353199 1.1060942e-38 323 242
0.0050846669 0.72500002 -0.0025423334 1.0968744e-38 324 242
0.0063821329 0.72799999 -0.0025528532 1.0968744e-38 325 242
0.0076585598 0.72799999 -0.0025528532 1.0693955e-38 326 242
0.0089595336 0.73000002 -0.0025598668 1.06014e-38 327 242
0.010239467 0.73000002 -0.0025598668 1.0785071e-38 328 242
0.011566739 0.73299998 -0.0025703865 1.0785071e-38 329 242
0.012851933 0.73299998 -0.0025703865 1.0967663e-38 330 242
0.014156413 0.73400003 -0.0025738934 1.0967663e-38 331 242
0.015485439 0.736 -0.0025809065 1.0691799e-38 332 242
0.016775893 0.736 -0.0025809065 1.0691799e-38 333 242
0.018115439 0.73799998 -0.0025879198 1.0691802e-38 334 242
0.019409399 0.73799998 -0.0025879198 1.0691802e-38 335 242
0.020703359 0.73799998 -0.0025879198 1.0508484e-38 336 242
0.022027127 0.73900002 -0.0025914267 1.0508484e-38 337 242
0.023322839 0.73900002 -0.0025914267 1.0417008e-38 338 242
0.024618553 0.73900002 -0.0025914267 1.0417008e-38 339 242
0.025914267 0.73900002 -0.0025914267 1.0783276e-38 340 242
0.027209979 0.73900002 -0.0025914267 1.0783276e-38 341 242
0.028505694 0.73900002 -0.0025914267 1.0691802e-38 342 242
0.029801406 0.73900002 -0.0025914267 1.0691802e-38 343 242
0.03109712 0.73900002 -0.0025914267 1.0599251e-38 344 242
0.032392833 0.73900002 -0.0025914267 1.0599251e-38 345 242
0.033688545 0.73900002 -0.0025914267 1.0415938e-38 346 242
0.034984261 0.73900002 -0.0025914267 1.0415938e-38 347 242
0.036279973 0.73900002 -0.0025914267 1.0232623e-38 348 242
0.037575684 0.73900002 -0.0025914267 1.0232623e-38 349 242
0.0388714 0.73900002 -0.0025914267 1.0416291e-38 350 242
0.040167112 0.73900002 -0.0025914267 1.0416291e-38 351 242
0.041406717 0.73799998 -0.0025879198 1.0416291e-38 352 242
0.042700678 0.73799998 -0.0025879198 1.0416291e-38 353 242
0.043875411 0.736 -0.0025809065 1.0416654e-38 354 242
0.045165867 0.736 -0.0025809065 1.0416654e-38 355 242
0.046330083 0.73400003 -0.0025738934 1.0233342e-38 356 242
0.047617026 0.73400003 -0.0025738934 1.0325539e-38 357 242
0.048837345 0.73299998 -0.0025703865 1.0601406e-38 358 242
0.049985781 0.73100001 -0.0025633732 1.0693601e-38 359 242
0.051197331 0.73000002 -0.0025598668 1.1060236e-38 360 242
0.052477267 0.73000002 -0.0025598668 1.1244267e-38 361 242
0.053609919 0.72799999 -0.0025528532 1.0879084e-38 362 242
0.054886345 0.72799999 -0.0025528532 1.097128e-38 363 242
0.056085624 0.727 -0.0025493465 1.0880882e-38 364 242
0.057202499 0.72500002 -0.0025423334 1.1065273e-38 365 242
0.058312356 0.72299999 -0.0025353199 1.1157826e-38 366 242
0.059497613 0.722 -0.0025318132 1.1434053e-38 367 242
0.060511041 0.71899998 -0.0025212932 1.1526249e-38 368 242
0.061256204 0.713 -0.0025002533 1.1618444e-38 369 242
0.062331002 0.71100003 -0.0024932399 1.1985432e-38 370 242
0.063309364 0.708 -0.00248272 1.2262019e-38 371 242
0.064368367 0.70599997 -0.0024757064 1.2263098e-38 372 242
0.065141588 0.70099998 -0.0024581731 1.2447129e-38 373 242
0.066370681 0.70099998 -0.0024581731 1.3277245e-38 374 242
0.067599766 0.70099998 -0.0024581731 1.3922615e-38 375 242
0.068141542 0.69400001 -0.0024336267 1.5210831e-38 376 242
0.069258414 0.69300002 -0.00243012 1.37357e-38 377 242
0.070473477 0.69300002 -0.00243012 1.2995968e-38 378 242
0.07168854 0.69300002 -0.00243012 1.2995968e-38 379 242
-0.035199918 0.71700001 -0.0037714199 1.3272908e-38 292 243
-0.03389544 0.71600002 -0.00376616 1.3180713e-38 293 243
-0.032640055 0.71600002 -0.00376616 1.539161e-38 294 243
-0.031428497 0.71700001 -0.0037714199 1.6221729e-38 295 243
-0.030171359 0.71700001 -0.0037714199 1.6777068e-38 296 243
-0.028914221 0.71700001 -0.0037714199 1.6592676e-38 297 243
-0.027618507 0.71600002 -0.00376616 1.6133497e-38 298 243
-0.026363119 0.71600002 -0.00376616 1.6041301e-38 299 243
-0.025107734 0.71600002 -0.00376616 1.6041301e-38 300 243
-0.023852346 0.71600002 -0.00376616 1.6041301e-38 301 243
-0.022596961 0.71600002 -0.00376616 1.6224613e-38 302 243
-0.021341572 0.71600002 -0.00376616 1.6224613e-38 303 243
-0.020030079 0.71399999 -0.0037556398 1.6224611e-38 304 243
-0.018778199 0.71399999 -0.0037556398 1.6040219e-38 305 243
-0.017526319 0.71399999 -0.0037556398 1.6317162e-38 306 243
-0.016274439 0.71399999 -0.0037556398 1.6501553e-38 307 243
-0.015022559 0.71399999 -0.0037556398 1.6683421e-38 308 243
-0.013751393 0.713 -0.0037503797 1.6407194e-38 309 243
-0.012501267 0.713 -0.0037503797 1.5947657e-38 310 243
-0.011251139 0.713 -0.0037503797 1.5855461e-38 311 243
-0.01005712 0.71700001 -0.0037714199 1.5577446e-38 312 243
-0.0087999795 0.71700001 -0.0037714199 1.5393414e-38 313 243
-0.00753232 0.71600002 -0.00376616 1.5394487e-38 314 243
-0.0062769335 0.71600002 -0.00376616 1.3918997e-38 315 243
-0.0048462129 0.69099998 -0.0036346598 1.2442782e-38 316 243
-0.0036346598 0.69099998 -0.0036346598 1.1612661e-38 317 243
-0.0025142799 0.71700001 -0.0037714199 1.1428996e-38 318 243
-0.00125714 0.71700001 -0.0037714199 1.13368e-38 319 243
0 0.71899998 -0.0037819401 1.1244251e-38 320 243
0.0012624001 0.72000003 -0.0037872 1.1152056e-38 321 243
0.0025248001 0.72000003 -0.0037872 1.0968744e-38 322 243
0.0038029798 0.72299999 -0.0038029798 1.0968744e-38 323 243
0.0050986931 0.727 -0.0038240198 1.0876548e-38 324 243
0.0063821329 0.72799999 -0.0038292799 1.0784351e-38 325 243
0.0076795998 0.73000002 -0.0038397999 1.060068e-38 326 243
0.0089595336 0.73000002 -0.0038397999 1.0508484e-38 327 243
0.010253493 0.73100001 -0.00384506 1.0692155e-38 328 243
0.011566739 0.73299998 -0.0038555798 1.0692155e-38 329 243
0.012869466 0.73400003 -0.0038608401 1.0691434e-38 330 243
0.014194986 0.736 -0.0038713599 1.0691434e-38 331 243
0.015485439 0.736 -0.0038713599 1.0416289e-38 332 243
0.016821479 0.73799998 -0.0038818798 1.0416289e-38 333 243
0.018115439 0.73799998 -0.0038818798 1.0415573e-38 334 243
0.019409399 0.73799998 -0.0038818798 1.0599604e-38 335 243
0.020731414 0.73900002 -0.00388714 1.0415926e-38 336 243
0.022027127 0.73900002 -0.00388714 1.0599957e-38 337 243
0.023322839 0.73900002 -0.00388714 1.0416645e-38 338 243
0.024618553 0.73900002 -0.00388714 1.0416645e-38 339 243
0.025914267 0.73900002 -0.00388714 1.0691081e-38 340 243
0.027209979 0.73900002 -0.00388714 1.0691081e-38 341 243
0.028505694 0.73900002 -0.00388714 1.0415217e-38 342 243
0.029882059 0.741 -0.0038976599 1.0415217e-38 343 243
0.03118128 0.741 -0.0038976599 1.0323021e-38 344 243
0.032480497 0.741 -0.0038976599 1.0323021e-38 345 243
0.033779722 0.741 -0.0038976599 1.0323021e-38 346 243
0.035078939 0.741 -0.0038976599 1.0415217e-38 347 243
0.036378156 0.741 -0.0038976599 1.0231542e-38 348 243
0.037677377 0.741 -0.0038976599 1.0231542e-38 349 243
0.038976599 0.741 -0.0038976599 1.0323374e-38 350 243
0.040167112 0.73900002 -0.00388714 1.041557e-38 351 243
0.041462827 0.73900002 -0.00388714 1.0324093e-38 352 243
0.042758539 0.73900002 -0.00388714 1.0324093e-38 353 243
0.043994635 0.73799998 -0.0038818798 1.0140425e-38 354 243
0.0452886 0.73799998 -0.0038818798 1.0140425e-38 355 243
0.046456318 0.736 -0.0038713599 1.0232979e-38 356 243
0.047617026 0.73400003 -0.0038608401 1.0232979e-38 357 243
0.048837345 0.73299998 -0.0038555798 1.0508487e-38 358 243
0.049985781 0.73100001 -0.00384506 1.0600684e-38 359 243
0.051197331 0.73000002 -0.0038397999 1.0784002e-38 360 243
0.052477267 0.73000002 -0.0038397999 1.0968393e-38 361 243
0.053757198 0.73000002 -0.0038397999 1.069397e-38 362 243
0.054886345 0.72799999 -0.0038292799 1.0878361e-38 363 243
0.056162767 0.72799999 -0.0038292799 1.0879079e-38 364 243
0.057360299 0.727 -0.0038240198 1.1063829e-38 365 243
0.058473669 0.72500002 -0.0038135003 1.1156743e-38 366 243
0.059497613 0.722 -0.0037977197 1.1248939e-38 367 243
0.060511041 0.71899998 -0.0037819401 1.1616647e-38 368 243
0.061513945 0.71600002 -0.00376616 1.1708842e-38 369 243
0.062331002 0.71100003 -0.0037398601 1.2076551e-38 370 243
0.063309364 0.708 -0.00372408 1.2260944e-38 371 243
0.064368367 0.70599997 -0.0037135598 1.2261666e-38 372 243
0.065141588 0.70099998 -0.0036872597 1.2353861e-38 373 243
0.066370681 0.70099998 -0.0036872597 1.3460206e-38 374 243
0.067599766 0.70099998 -0.0036872597 1.4289967e-38 375 243
0.068141542 0.69400001 -0.0036504399 1.5026439e-38 376 243
0.069258414 0.69300002 -0.0036451798 1.3367278e-38 377 243
0.070473477 0.69300002 -0.0036451798 1.2627905e-38 378 243
0.07168854 0.69300002 -0.0036451798 1.2904852e-38 379 243
-0.036457058 0.71700001 -0.0050285598 1.3364028e-38 291 244
-0.035199918 0.71700001 -0.0050285598 1.3272558e-38 292 244
-0.03389544 0.71600002 -0.0050215465 1.3825732e-38 293 244
-0.032640055 0.71600002 -0.0050215465 1.5946587e-38 294 244
-0.031428497 0.71700001 -0.0050285598 1.6591957e-38 295 244
-0.030171359 0.71700001 -0.0050285598 1.6594475e-38 296 244
-0.028914221 0.71700001 -0.0050285598 1.6409725e-38 297 244
-0.027618507 0.71600002 -0.0050215465 1.6226415e-38 298 244
-0.026363119 0.71600002 -0.0050215465 1.6318611e-38 299 244
-0.025107734 0.71600002 -0.0050215465 1.6501923e-38 300 244
-0.023852346 0.71600002 -0.0050215465 1.6501923e-38 301 244
-0.022533838 0.71399999 -0.0050075199 1.6777787e-38 302 244
-0.021281958 0.71399999 -0.0050075199 1.6777787e-38 303 244
-0.020030079 0.71399999 -0.0050075199 1.6777787e-38 304 244
-0.018778199 0.71399999 -0.0050075199 1.6685592e-38 305 244
-0.017501773 0.713 -0.0050005065 1.7330238e-38 306 244
-0.016251646 0.713 -0.0050005065 1.7514631e-38 307 244
-0.015001519 0.713 -0.0050005065 1.7880172e-38 308 244
-0.01371282 0.71100003 -0.0049864799 1.7234802e-38 309 244
-0.0124662 0.71100003 -0.0049864799 1.6314289e-38 310 244
-0.01121958 0.71100003 -0.0049864799 1.6037701e-38 311 244
-0.01005712 0.71700001 -0.0050285598 1.5300862e-38 312 244
-0.0087877065 0.71600002 -0.0050215465 1.4563297e-38 313 244
-0.00753232 0.71600002 -0.0050215465 1.4750562e-38 314 244
-0.0062769335 0.71600002 -0.0050215465 1.4658367e-38 315 244
-0.0048462129 0.69099998 -0.0048462129 1.3270746e-38 316 244
-0.0036293997 0.69 -0.0048391996 1.1703062e-38 317 244
-0.0024125867 0.68800002 -0.0048251734 1.1154204e-38 318 244
-0.0012062934 0.68800002 -0.0048251734 1.1062008e-38 319 244
0 0.71899998 -0.0050425865 1.0968741e-38 320 244
0.0012659066 0.722 -0.0050636264 1.0876545e-38 321 244
0.0025353199 0.72299999 -0.0050706398 1.0876545e-38 322 244
0.0038135003 0.72500002 -0.0050846669 1.0876545e-38 323 244
0.0050986931 0.727 -0.0050986931 1.096766e-38 324 244
0.0063821329 0.72799999 -0.0051057064 1.0691434e-38 325 244
0.0076795998 0.73000002 -0.0051197335 1.0783632e-38 326 244
0.0089718066 0.73100001 -0.0051267464 1.0691436e-38 327 244
0.010281546 0.73299998 -0.005140773 1.0416289e-38 328 244
0.011582521 0.73400003 -0.0051477868 1.0416289e-38 329 244
0.012869466 0.73400003 -0.0051477868 1.0598882e-38 330 244
0.014194986 0.736 -0.005161813 1.0598882e-38 331 244
0.015527519 0.73799998 -0.0051758396 1.041557e-38 332 244
0.016821479 0.73799998 -0.0051758396 1.041557e-38 333 244
0.018139986 0.73900002 -0.0051828534 1.0231897e-38 334 244
0.0194357 0.73900002 -0.0051828534 1.0324093e-38 335 244
0.020787518 0.741 -0.0051968796 1.0599235e-38 336 244
0.02208674 0.741 -0.0051968796 1.0599235e-38 337 244
0.023385961 0.741 -0.0051968796 1.0415926e-38 338 244
0.024685178 0.741 -0.0051968796 1.0415926e-38 339 244
0.026019465 0.74199998 -0.0052038929 1.0415573e-38 340 244
0.027283618 0.741 -0.0051968796 1.0415573e-38 341 244
0.028582839 0.741 -0.0051968796 1.0323377e-38 342 244
0.029882059 0.741 -0.0051968796 1.0230823e-38 343 244
0.03118128 0.741 -0.0051968796 1.0231897e-38 344 244
0.032480497 0.741 -0.0051968796 1.0139702e-38 345 244
0.033779722 0.741 -0.0051968796 1.0231176e-38 346 244
0.035078939 0.741 -0.0051968796 1.0323371e-38 347 244
0.036378156 0.741 -0.0051968796 1.0231179e-38 348 244
0.037677377 0.741 -0.0051968796 1.0231179e-38 349 244
0.038976599 0.741 -0.0051968796 1.0231179e-38 350 244
0.04027582 0.741 -0.0051968796 1.0323374e-38 351 244
0.041575037 0.741 -0.0051968796 1.0048585e-38 352 244
0.042874258 0.741 -0.0051968796 1.0048585e-38 353 244
0.044054255 0.73900002 -0.0051828534 1.0048229e-38 354 244
0.045349967 0.73900002 -0.0051828534 1.0048229e-38 355 244
0.046582557 0.73799998 -0.0051758396 1.0324096e-38 356 244
0.047746774 0.736 -0.005161813 1.0231542e-38 357 244
0.048903972 0.73400003 -0.0051477868 1.0415217e-38 358 244
0.050122537 0.73299998 -0.005140773 1.0599607e-38 359 244
0.051267464 0.73100001 -0.0051267464 1.0599253e-38 360 244
0.052549154 0.73100001 -0.0051267464 1.0691449e-38 361 244
0.053757198 0.73000002 -0.0051197335 1.0600334e-38 362 244
0.055037133 0.73000002 -0.0051197335 1.0876561e-38 363 244
0.056162767 0.72799999 -0.0051057064 1.0877996e-38 364 244
0.057360299 0.727 -0.0050986931 1.1062027e-38 365 244
0.058473669 0.72500002 -0.0050846669 1.1155303e-38 366 244
0.059497613 0.722 -0.0050636264 1.1339334e-38 367 244
0.060511041 0.71899998 -0.0050425865 1.1340416e-38 368 244
0.061599858 0.71700001 -0.0050285598 1.1524448e-38 369 244
0.062506333 0.713 -0.0050005065 1.1800319e-38 370 244
0.063577622 0.71100003 -0.0049864799 1.2076904e-38 371 244
0.064824238 0.71100003 -0.0049864799 1.2076902e-38 372 244
0.066070862 0.71100003 -0.0049864799 1.2261653e-38 373 244
0.067317478 0.71100003 -0.0049864799 1.3644582e-38 374 244
0.06663543 0.69099998 -0.0048462129 1.4382506e-38 375 244
0.067846984 0.69099998 -0.0048462129 1.4290307e-38 376 244
0.068758719 0.68800002 -0.0048251734 1.2815176e-38 377 244
0.06996502 0.68800002 -0.0048251734 1.2169082e-38 378 244
-0.037661601 0.71600002 -0.0062769335 1.3179646e-38 290 245
-0.036406212 0.71600002 -0.0062769335 1.3179646e-38 291 245
-0.035150826 0.71600002 -0.0062769335 1.391794e-38 292 245
-0.03389544 0.71600002 -0.0062769335 1.4840257e-38 293 245
-0.032640055 0.71600002 -0.0062769335 1.640901e-38 294 245
-0.031428497 0.71700001 -0.0062857 1.6961825e-38 295 245
-0.03012928 0.71600002 -0.0062769335 1.6502642e-38 296 245
-0.028873893 0.71600002 -0.0062769335 1.6318611e-38 297 245
-0.027618507 0.71600002 -0.0062769335 1.5951268e-38 298 245
-0.026363119 0.71600002 -0.0062769335 1.6136018e-38 299 245
-0.025037598 0.71399999 -0.0062593995 1.6594841e-38 300 245
-0.02378572 0.71399999 -0.0062593995 1.6687036e-38 301 245
-0.022533838 0.71399999 -0.0062593995 1.6778516e-38 302 245
-0.021281958 0.71399999 -0.0062593995 1.668632e-38 303 245
-0.020002026 0.713 -0.0062506334 1.6503368e-38 304 245
-0.018751899 0.713 -0.0062506334 1.6595922e-38 305 245
-0.017501773 0.713 -0.0062506334 1.7239488e-38 306 245
-0.016251646 0.713 -0.0062506334 1.7331684e-38 307 245
-0.014959441 0.71100003 -0.0062330998 1.8066008e-38 308 245
-0.01371282 0.71100003 -0.0062330998 1.7605031e-38 309 245
-0.0124662 0.71100003 -0.0062330998 1.6683802e-38 310 245
-0.01121958 0.71100003 -0.0062330998 1.5945878e-38 311 245
-0.01005712 0.71700001 -0.0062857 1.484061e-38 312 245
-0.0087877065 0.71600002 -0.0062769335 1.4010489e-38 313 245
-0.00753232 0.71600002 -0.0062769335 1.4015165e-38 314 245
-0.0060577663 0.69099998 -0.0060577663 1.4844926e-38 315 245
-0.0048462129 0.69099998 -0.0060577663 1.4469652e-38 316 245
-0.0036293997 0.69 -0.0060489997 1.2072567e-38 317 245
-0.0024125867 0.68800002 -0.0060314666 1.1427904e-38 318 245
-0.0012062934 0.68800002 -0.0060314666 1.1427904e-38 319 245
0 0.722 -0.0063295332 1.0876901e-38 320 245
0.0012659066 0.722 -0.0063295332 1.0876901e-38 321 245
0.0025353199 0.72299999 -0.0063382997 1.0601036e-38 322 245
0.0038240198 0.727 -0.0063733663 1.050884e-38 323 245
0.0051057064 0.72799999 -0.0063821329 1.0691434e-38 324 245
0.0063996664 0.73000002 -0.0063996664 1.0599238e-38 325 245
0.00769012 0.73100001 -0.006408433 1.0691436e-38 326 245
0.0089963535 0.73299998 -0.0064259665 1.0598882e-38 327 245
0.010295574 0.73400003 -0.006434733 1.0598882e-38 328 245
0.01161408 0.736 -0.0064522666 1.0598882e-38 329 245
0.012904533 0.736 -0.0064522666 1.0323374e-38 330 245
0.014233559 0.73799998 -0.0064697997 1.0323374e-38 331 245
0.015527519 0.73799998 -0.0064697997 1.0323374e-38 332 245
0.016844273 0.73900002 -0.0064785667 1.0323374e-38 333 245
0.018189078 0.741 -0.0064960998 1.0231897e-38 334 245
0.019488299 0.741 -0.0064960998 1.0231897e-38 335 245
0.020815572 0.74199998 -0.0065048663 1.0323727e-38 336 245
0.022116546 0.74199998 -0.0065048663 1.0323727e-38 337 245
0.023417519 0.74199998 -0.0065048663 1.0324446e-38 338 245
0.024718491 0.74199998 -0.0065048663 1.0232251e-38 339 245
0.026089599 0.74400002 -0.0065223998 1.0323377e-38 340 245
0.027320439 0.74199998 -0.0065048663 1.0323377e-38 341 245
0.028621411 0.74199998 -0.0065048663 1.0231542e-38 342 245
0.029922385 0.74199998 -0.0065048663 1.0139346e-38 343 245
0.031223357 0.74199998 -0.0065048663 9.9563839e-39 344 245
0.032524332 0.74199998 -0.0065048663 9.9563839e-39 345 245
0.033825304 0.74199998 -0.0065048663 1.0231529e-38 346 245
0.035078939 0.741 -0.0064960998 1.0231529e-38 347 245
0.036378156 0.741 -0.0064960998 1.0231176e-38 348 245
0.037677377 0.741 -0.0064960998 1.0138979e-38 349 245
0.038976599 0.741 -0.0064960998 1.0138983e-38 350 245
0.04027582 0.741 -0.0064960998 1.0138983e-38 351 245
0.041575037 0.741 -0.0064960998 9.9560336e-39 352 245
0.042874258 0.741 -0.0064960998 9.9560336e-39 353 245
0.044054255 0.73900002 -0.0064785667 1.0139346e-38 354 245
0.045349967 0.73900002 -0.0064785667 1.0139346e-38 355 245
0.046645679 0.73900002 -0.0064785667 1.0230823e-38 356 245
0.047876518 0.73799998 -0.0064697997 1.0323377e-38 357 245
0.049037226 0.736 -0.0064522666 1.0230825e-38 358 245
0.050190922 0.73400003 -0.006434733 1.0415217e-38 359 245
0.051407732 0.73299998 -0.0064259665 1.0140077e-38 360 245
0.052549154 0.73100001 -0.006408433 1.0140077e-38 361 245
0.053830836 0.73100001 -0.006408433 1.0598897e-38 362 245
0.055037133 0.73000002 -0.0063996664 1.0783649e-38 363 245
0.056162767 0.72799999 -0.0063821329 1.0693246e-38 364 245
0.057439197 0.72799999 -0.0063821329 1.0877996e-38 365 245
0.058473669 0.72500002 -0.0063558333 1.0879435e-38 366 245
0.059497613 0.722 -0.0063295332 1.1063826e-38 367 245
0.060511041 0.71899998 -0.0063032326 1.1156387e-38 368 245
0.061599858 0.71700001 -0.0062857 1.1248942e-38 369 245
0.062506333 0.713 -0.0062506334 1.1616647e-38 370 245
0.063756458 0.713 -0.0062506334 1.1801038e-38 371 245
0.065006584 0.713 -0.0062506334 1.1708827e-38 372 245
