# .PCD v.7 - Point Cloud Data file format
FIELDS x y z rgb imX imY
SIZE 4 4 4 4 4 4
TYPE F F F U U U
COUNT 1 1 1 1 1 1
WIDTH 841
HEIGHT 1
VIEWPOINT 0 0 0 1 0 0 0
POINTS 841
DATA ascii
0.078110993 0.67500001 -0.0153855 1.6036995e-38 386 253
0.079411969 0.676 -0.015408293 1.6221745e-38 387 253
0.080597222 0.676 -0.015408293 1.6223188e-38 388 253
0.081782483 0.676 -0.015408293 1.447147e-38 389 253
0.083213195 0.67799997 -0.015453878 1.1614126e-38 390 253
0.08440195 0.67799997 -0.015453878 1.4564746e-38 391 253
0.085590713 0.67799997 -0.015453878 1.604167e-38 392 253
0.086779475 0.67799997 -0.015453878 1.5672889e-38 393 253
0.08809799 0.67900002 -0.015476674 1.5946597e-38 394 253
0.089288503 0.67900002 -0.015476674 1.6039153e-38 395 253
0.090479009 0.67900002 -0.015476674 1.4562944e-38 396 253
0.091804534 0.68000001 -0.015499466 1.2074021e-38 397 253
0.09340708 0.68300003 -0.015567848 1.3916132e-38 398 253
0.094604604 0.68300003 -0.015567848 1.5299067e-38 399 253
0.0959424 0.68400002 -0.01559064 1.5389461e-38 400 253
0.097425714 0.68599999 -0.015636226 1.5666408e-38 401 253
0.098916054 0.68800002 -0.015681813 1.5391616e-38 402 253
0.1004134 0.69 -0.015727401 1.4746246e-38 403 253
0.10177048 0.69099998 -0.015750192 1.3365473e-38 404 253
0.10342913 0.69400001 -0.015818574 1.4010842e-38 405 253
0.10494751 0.69599998 -0.015864158 1.5482732e-38 406 253
0.10632038 0.69700003 -0.015886955 1.5206145e-38 407 253
0.10769674 0.69800001 -0.015909746 1.5022826e-38 408 253
0.10923266 0.69999999 -0.015955333 1.4838795e-38 409 253
0.11061779 0.70099998 -0.015978126 1.4746962e-38 410 253
0.11184688 0.70099998 -0.015978126 1.4746962e-38 411 253
0.11662471 0.72299999 -0.01647958 1.4654048e-38 412 253
0.11789237 0.72299999 -0.01647958 1.4838439e-38 413 253
0.11916003 0.72299999 -0.01647958 1.5390167e-38 414 253
0.12042769 0.72299999 -0.01647958 1.5574559e-38 415 253
-0.10466698 0.72799999 -0.017869972 1.9732033e-38 238 254
-0.10381662 0.73100001 -0.017943613 1.9732033e-38 239 254
-0.10253493 0.73100001 -0.017943613 1.9824228e-38 240 254
-0.10111474 0.73000002 -0.017919067 1.9732033e-38 241 254
-0.0998348 0.73000002 -0.017919067 2.0099376e-38 242 254
-0.098284848 0.72799999 -0.017869972 1.982243e-38 243 254
-0.096875168 0.727 -0.017845426 1.9913183e-38 244 254
-0.095600501 0.727 -0.017845426 1.9913183e-38 245 254
-0.094066329 0.72500002 -0.017796334 2.0556386e-38 246 254
-0.092795171 0.72500002 -0.017796334 2.046383e-38 247 254
-0.09127152 0.72299999 -0.017747238 2.0647132e-38 248 254
-0.090003856 0.72299999 -0.017747238 2.0554937e-38 249 254
-0.088736199 0.72299999 -0.017747238 2.0922996e-38 250 254
-0.087468542 0.72299999 -0.017747238 2.129178e-38 251 254
-0.086081654 0.722 -0.017722692 2.1386853e-38 252 254
-0.084815748 0.722 -0.017722692 2.1755275e-38 253 254
-0.083549835 0.722 -0.017722692 2.2030064e-38 254 254
-0.082283929 0.722 -0.017722692 2.2122618e-38 255 254
-0.081018023 0.722 -0.017722692 2.2214085e-38 256 254
-0.079752117 0.722 -0.017722692 2.1660912e-38 257 254
-0.078268804 0.72000003 -0.017673599 2.1199572e-38 258 254
-0.076899439 0.71899998 -0.017649053 2.0922625e-38 259 254
-0.075638793 0.71899998 -0.017649053 2.0371256e-38 260 254
-0.074067809 0.71600002 -0.017575413 2.0002113e-38 261 254
-0.072812423 0.71600002 -0.017575413 1.9630814e-38 262 254
-0.071357153 0.71399999 -0.017526319 1.926203e-38 263 254
-0.070105277 0.71399999 -0.017526319 1.8434441e-38 264 254
-0.068564095 0.71100003 -0.01745268 1.8618473e-38 265 254
-0.067222796 0.70999998 -0.017428132 1.9730233e-38 266 254
-0.065792084 0.708 -0.017379038 2.0283407e-38 267 254
-0.064459547 0.70700002 -0.017354494 1.9914632e-38 268 254
-0.063130513 0.70599997 -0.017329946 2.0006827e-38 269 254
-0.061717331 0.704 -0.017280852 1.9088114e-38 270 254
-0.060225245 0.70099998 -0.017207211 1.6967255e-38 271 254
-0.058911994 0.69999999 -0.017182667 1.6046375e-38 272 254
-0.05743745 0.69700003 -0.017109027 1.7890288e-38 273 254
-0.056134716 0.69599998 -0.017084479 1.908631e-38 274 254
-0.054756597 0.69400001 -0.017035386 1.8625691e-38 275 254
-0.053462639 0.69300002 -0.01701084 1.8716454e-38 276 254
-0.05224758 0.69300002 -0.01701084 1.8624259e-38 277 254
-0.050885238 0.69099998 -0.016961746 1.8808297e-38 278 254
-0.049673684 0.69099998 -0.016961746 1.8716101e-38 279 254
-0.04846213 0.69099998 -0.016961746 1.4020242e-38 280 254
-0.047182199 0.69 -0.0169372 1.3928045e-38 281 254
-0.045839146 0.68800002 -0.016888106 1.7335322e-38 282 254
-0.044567976 0.68699998 -0.01686356 1.7980691e-38 283 254
-0.043363437 0.68699998 -0.01686356 1.7704097e-38 284 254
-0.042097531 0.68599999 -0.016839013 1.7796293e-38 285 254
-0.040775519 0.68400002 -0.016789921 1.7887772e-38 286 254
-0.039518382 0.68300003 -0.016765373 1.7887772e-38 287 254
-0.038320854 0.68300003 -0.016765373 1.8071082e-38 288 254
-0.037068974 0.68199998 -0.016740825 1.8071082e-38 289 254
-0.035873197 0.68199998 -0.016740825 1.7979971e-38 290 254
-0.034677424 0.68199998 -0.016740825 1.7242047e-38 291 254
-0.03348165 0.68199998 -0.016740825 1.3187237e-38 292 254
-0.032191198 0.68000001 -0.016691733 1.337127e-38 293 254
-0.030998932 0.68000001 -0.016691733 1.7241321e-38 294 254
-0.029806666 0.68000001 -0.016691733 1.7610463e-38 295 254
-0.028614398 0.68000001 -0.016691733 1.7150924e-38 296 254
-0.027381808 0.67900002 -0.016667187 1.7058728e-38 297 254
-0.026191294 0.67900002 -0.016667187 1.733352e-38 298 254
-0.024963958 0.67799997 -0.016642639 1.7056934e-38 299 254
-0.023705067 0.676 -0.016593546 1.6965457e-38 300 254
-0.022519812 0.676 -0.016593546 1.6873262e-38 301 254
-0.021334561 0.676 -0.016593546 1.6873262e-38 302 254
-0.020149305 0.676 -0.016593546 1.6412284e-38 303 254
-0.018964052 0.676 -0.016593546 1.2913166e-38 304 254
-0.0177525 0.67500001 -0.016569 1.1622427e-38 305 254
-0.016569 0.67500001 -0.016569 1.5398844e-38 306 254
-0.015362706 0.67400002 -0.016544454 1.6504832e-38 307 254
-0.01418096 0.67400002 -0.016544454 1.6320444e-38 308 254
-0.012999214 0.67400002 -0.016544454 1.6320444e-38 309 254
-0.011782399 0.67199999 -0.01649536 1.6320088e-38 310 254
-0.010604159 0.67199999 -0.01649536 1.6227892e-38 311 254
-0.0094118929 0.671 -0.016470812 1.604458e-38 312 254
-0.0082354061 0.671 -0.016470812 1.5952383e-38 313 254
-0.0070589199 0.671 -0.016470812 1.6134974e-38 314 254
-0.0058824331 0.671 -0.016470812 1.6227528e-38 315 254
-0.0046849065 0.66799998 -0.016397171 1.4476897e-38 316 254
-0.0035084197 0.667 -0.016372627 1.1619193e-38 317 254
-0.0023389466 0.667 -0.016372627 1.3002849e-38 318 254
-0.0011694733 0.667 -0.016372627 1.4846403e-38 319 254
0 0.66600001 -0.016348081 1.604386e-38 320 254
0.00116772 0.66600001 -0.016348081 1.604386e-38 321 254
0.0023284266 0.66399997 -0.016298985 1.5951664e-38 322 254
0.0034926396 0.66399997 -0.016298985 1.5951664e-38 323 254
0.0046568532 0.66399997 -0.016298985 1.5860187e-38 324 254
0.0058122999 0.66299999 -0.016274439 1.6136776e-38 325 254
0.0069747595 0.66299999 -0.016274439 1.7055491e-38 326 254
0.0081372196 0.66299999 -0.016274439 1.5672556e-38 327 254
0.009285653 0.662 -0.016249891 1.3093231e-38 328 254
0.01044636 0.662 -0.016249891 1.1157123e-38 329 254
0.011607066 0.662 -0.016249891 1.3920114e-38 330 254
0.012767773 0.662 -0.016249891 1.5026463e-38 331 254
0.01392848 0.662 -0.016249891 1.4932818e-38 332 254
0.015089186 0.662 -0.016249891 1.4380003e-38 333 254
0.016249891 0.662 -0.016249891 1.4471114e-38 334 254
0.017410601 0.662 -0.016249891 1.4471114e-38 335 254
0.018571306 0.662 -0.016249891 1.4287083e-38 336 254
0.019732011 0.662 -0.016249891 1.4287083e-38 337 254
0.020892721 0.662 -0.016249891 1.4195609e-38 338 254
0.02208674 0.66299999 -0.016274439 1.4472196e-38 339 254
0.0232492 0.66299999 -0.016274439 1.36446e-38 340 254
0.024411658 0.66299999 -0.016274439 1.0049329e-38 341 254
0.025612691 0.66399997 -0.016298985 1.0973446e-38 342 254
0.026776904 0.66399997 -0.016298985 1.3831512e-38 343 254
0.027941117 0.66399997 -0.016298985 1.4475085e-38 344 254
0.02910533 0.66399997 -0.016298985 1.4382531e-38 345 254
0.030223956 0.66299999 -0.016274439 1.4566562e-38 346 254
0.031386416 0.66299999 -0.016274439 1.4658759e-38 347 254
0.032548878 0.66299999 -0.016274439 1.4659112e-38 348 254
0.033660494 0.662 -0.016249891 1.4659112e-38 349 254
0.034821201 0.662 -0.016249891 1.4475436e-38 350 254
0.035981905 0.662 -0.016249891 1.438324e-38 351 254
0.037142612 0.662 -0.016249891 1.456691e-38 352 254
0.038303319 0.662 -0.016249891 1.392154e-38 353 254
0.039464023 0.662 -0.016249891 1.2262742e-38 354 254
0.04062473 0.662 -0.016249891 1.0603219e-38 355 254
0.041785441 0.662 -0.016249891 1.3092145e-38 356 254
0.043011017 0.66299999 -0.016274439 1.4382884e-38 357 254
0.044173479 0.66299999 -0.016274439 1.4659112e-38 358 254
0.045335937 0.66299999 -0.016274439 1.4843143e-38 359 254
0.046498399 0.66299999 -0.016274439 1.5119733e-38 360 254
0.047660857 0.66299999 -0.016274439 1.5211929e-38 361 254
0.048823316 0.66299999 -0.016274439 1.5488513e-38 362 254
0.049985778 0.66299999 -0.016274439 1.5488513e-38 363 254
0.051148236 0.66299999 -0.016274439 1.5579987e-38 364 254
0.052310698 0.66299999 -0.016274439 1.5856572e-38 365 254
0.053392503 0.662 -0.016249891 1.6039163e-38 366 254
0.054553211 0.662 -0.016249891 1.2351696e-38 367 254
0.055713918 0.662 -0.016249891 1.1706324e-38 368 254
0.056874625 0.662 -0.016249891 1.4933171e-38 369 254
0.058035329 0.662 -0.016249891 1.5856206e-38 370 254
0.059285458 0.66299999 -0.016274439 1.6316824e-38 371 254
0.060447913 0.66299999 -0.016274439 1.6408657e-38 372 254
0.061703302 0.66399997 -0.016298985 1.6316461e-38 373 254
0.062867515 0.66399997 -0.016298985 1.6315014e-38 374 254
0.064224601 0.66600001 -0.016348081 1.6038427e-38 375 254
0.065490507 0.667 -0.016372627 1.5945503e-38 376 254
0.066759922 0.66799998 -0.016397171 1.5484883e-38 377 254
0.067931145 0.66799998 -0.016397171 1.4746243e-38 378 254
0.069102369 0.66799998 -0.016397171 1.3271113e-38 379 254
0.070483997 0.67000002 -0.016446266 1.437855e-38 380 254
0.071765684 0.671 -0.016470812 1.5577093e-38 381 254
0.073050871 0.67199999 -0.01649536 1.6036632e-38 382 254
0.074229114 0.67199999 -0.01649536 1.5944436e-38 383 254
0.07563179 0.67400002 -0.016544454 1.5944799e-38 384 254
0.076813534 0.67400002 -0.016544454 1.5944799e-38 385 254
0.078226723 0.676 -0.016593546 1.6129193e-38 386 254
0.079411969 0.676 -0.016593546 1.6221389e-38 387 254
0.080597222 0.676 -0.016593546 1.6039516e-38 388 254
0.082024433 0.67799997 -0.016642639 1.4195603e-38 389 254
0.083213195 0.67799997 -0.016642639 1.1522286e-38 390 254
0.08440195 0.67799997 -0.016642639 1.4564743e-38 391 254
0.085590713 0.67799997 -0.016642639 1.6317175e-38 392 254
0.086779475 0.67799997 -0.016642639 1.5671805e-38 393 254
0.08809799 0.67900002 -0.016667187 1.5945878e-38 394 254
0.089288503 0.67900002 -0.016667187 1.6038433e-38 395 254
0.090479009 0.67900002 -0.016667187 1.4471104e-38 396 254
0.091804534 0.68000001 -0.016691733 1.2074018e-38 397 254
0.09340708 0.68300003 -0.016765373 1.3825013e-38 398 254
0.094743125 0.68400002 -0.016789921 1.5115752e-38 399 254
0.0959424 0.68400002 -0.016789921 1.5115749e-38 400 254
0.097567737 0.68699998 -0.01686356 1.5115749e-38 401 254
0.098916054 0.68800002 -0.016888106 1.5299061e-38 402 254
0.1004134 0.69 -0.0169372 1.4746246e-38 403 254
0.10177048 0.69099998 -0.016961746 1.3273277e-38 404 254
0.10342913 0.69400001 -0.017035386 1.3918646e-38 405 254
0.10494751 0.69599998 -0.017084479 1.4839514e-38 406 254
0.10647292 0.69800001 -0.017133573 1.5023907e-38 407 254
0.10800533 0.69999999 -0.017182667 1.5022107e-38 408 254
0.1093887 0.70099998 -0.017207211 1.4837357e-38 409 254
0.11061779 0.70099998 -0.017207211 1.4655849e-38 410 254
0.11567616 0.72500002 -0.017796334 1.4563294e-38 411 254
0.11694734 0.72500002 -0.017796334 1.4653332e-38 412 254
0.11789237 0.72299999 -0.017747238 1.5021754e-38 413 254
0.11916003 0.72299999 -0.017747238 1.4931707e-38 414 254
0.12042769 0.72299999 -0.017747238 1.4931707e-38 415 254
0.12203201 0.72500002 -0.017796334 1.5390514e-38 416 254
-0.10466698 0.72799999 -0.0191464 2.0100092e-38 238 255
-0.10324854 0.727 -0.019120099 1.9915701e-38 239 255
-0.10197386 0.727 -0.019120099 2.0283041e-38 240 255
-0.10069919 0.727 -0.019120099 2.0190487e-38 241 255
-0.099424519 0.727 -0.019120099 2.0373434e-38 242 255
-0.098149844 0.727 -0.019120099 2.0281238e-38 243 255
-0.096608669 0.72500002 -0.0190675 2.0371634e-38 244 255
-0.095074497 0.72299999 -0.019014901 2.046383e-38 245 255
-0.093806833 0.72299999 -0.019014901 2.074005e-38 246 255
-0.092539176 0.72299999 -0.019014901 2.0832247e-38 247 255
-0.091145277 0.722 -0.0189886 2.1292499e-38 248 255
-0.089879371 0.722 -0.0189886 2.1661642e-38 249 255
-0.088613465 0.722 -0.0189886 2.2305209e-38 250 255
-0.087105595 0.72000003 -0.018935999 2.2489602e-38 251 255
-0.085843205 0.72000003 -0.018935999 2.2398481e-38 252 255
-0.084463328 0.71899998 -0.018909698 2.2213729e-38 253 255
-0.082971238 0.71700001 -0.018857099 2.1292852e-38 254 255
-0.08160013 0.71600002 -0.0188308 2.0371256e-38 255 255
-0.080344744 0.71600002 -0.0188308 2.0093593e-38 256 255
-0.079089358 0.71600002 -0.0188308 1.9356028e-38 257 255
-0.077833973 0.71600002 -0.0188308 1.9446423e-38 258 255
-0.076578587 0.71600002 -0.0188308 1.9538618e-38 259 255
-0.075323202 0.71600002 -0.0188308 1.9909565e-38 260 255
-0.074067809 0.71600002 -0.0188308 2.0554934e-38 261 255
-0.072609037 0.71399999 -0.018778199 2.1107392e-38 262 255
-0.071357153 0.71399999 -0.018778199 2.1199587e-38 263 255
-0.070007093 0.713 -0.018751899 2.0737533e-38 264 255
-0.068564095 0.71100003 -0.0186993 2.0460946e-38 265 255
-0.067222796 0.70999998 -0.018672999 2.0097575e-38 266 255
-0.065792084 0.708 -0.0186204 2.0558552e-38 267 255
-0.064459547 0.70700002 -0.018594101 2.0283054e-38 268 255
-0.063130513 0.70599997 -0.018567799 2.0006827e-38 269 255
-0.061717331 0.704 -0.018515198 1.8901922e-38 270 255
-0.060225245 0.70099998 -0.018436298 1.6965813e-38 271 255
-0.058911994 0.69999999 -0.018409999 1.6322961e-38 272 255
-0.05743745 0.69700003 -0.018331099 1.8351265e-38 273 255
-0.056134716 0.69599998 -0.018304799 1.8810805e-38 274 255
-0.054756597 0.69400001 -0.0182522 1.8533858e-38 275 255
-0.053462639 0.69300002 -0.018225901 1.8716454e-38 276 255
-0.05224758 0.69300002 -0.018225901 1.8716454e-38 277 255
-0.050885238 0.69099998 -0.0181733 1.8623908e-38 278 255
-0.049673684 0.69099998 -0.0181733 1.7978539e-38 279 255
-0.04846213 0.69099998 -0.0181733 1.4109917e-38 280 255
-0.047182199 0.69 -0.018146999 1.466309e-38 281 255
-0.045839146 0.68800002 -0.0180944 1.7979242e-38 282 255
-0.044567976 0.68699998 -0.018068098 1.8071438e-38 283 255
-0.043363437 0.68699998 -0.018068098 1.7888126e-38 284 255
-0.042097531 0.68599999 -0.018041799 1.7888126e-38 285 255
-0.040775519 0.68400002 -0.0179892 1.7887772e-38 286 255
-0.039518382 0.68300003 -0.017962901 1.7795577e-38 287 255
-0.038320854 0.68300003 -0.017962901 1.7978886e-38 288 255
-0.037068974 0.68199998 -0.017936599 1.8071082e-38 289 255
-0.035873197 0.68199998 -0.017936599 1.7150924e-38 290 255
-0.034677424 0.68199998 -0.017936599 1.5491762e-38 291 255
-0.03348165 0.68199998 -0.017936599 1.3095395e-38 292 255
-0.032191198 0.68000001 -0.017883999 1.4386134e-38 293 255
-0.030998932 0.68000001 -0.017883999 1.7150921e-38 294 255
-0.029806666 0.68000001 -0.017883999 1.7243475e-38 295 255
-0.028614398 0.68000001 -0.017883999 1.7150205e-38 296 255
-0.027381808 0.67900002 -0.017857701 1.7150205e-38 297 255
-0.026191294 0.67900002 -0.017857701 1.7057653e-38 298 255
-0.024963958 0.67799997 -0.0178314 1.6965457e-38 299 255
-0.023705067 0.676 -0.017778801 1.6873265e-38 300 255
-0.022519812 0.676 -0.017778801 1.6873265e-38 301 255
-0.021334561 0.676 -0.017778801 1.6414084e-38 302 255
-0.020149305 0.676 -0.017778801 1.5676519e-38 303 255
-0.018964052 0.676 -0.017778801 1.282025e-38 304 255
-0.0177525 0.67500001 -0.0177525 1.2082685e-38 305 255
-0.016569 0.67500001 -0.0177525 1.5860185e-38 306 255
-0.015362706 0.67400002 -0.0177262 1.6137132e-38 307 255
-0.01418096 0.67400002 -0.0177262 1.6320444e-38 308 255
-0.012999214 0.67400002 -0.0177262 1.641264e-38 309 255
-0.011782399 0.67199999 -0.017673599 1.6228246e-38 310 255
-0.010604159 0.67199999 -0.017673599 1.6228246e-38 311 255
-0.0094118929 0.671 -0.0176473 1.6043857e-38 312 255
-0.0082354061 0.671 -0.0176473 1.6043857e-38 313 255
-0.0070589199 0.671 -0.0176473 1.6134977e-38 314 255
-0.0058824331 0.671 -0.0176473 1.6411565e-38 315 255
-0.0047059464 0.671 -0.0176473 1.4108475e-38 316 255
-0.0035136798 0.66799998 -0.017568398 1.1434801e-38 317 255
-0.0023389466 0.667 -0.0175421 1.3923004e-38 318 255
-0.0011694733 0.667 -0.0175421 1.5582526e-38 319 255
0 0.667 -0.0175421 1.5859113e-38 320 255
0.00116772 0.66600001 -0.017515799 1.5859113e-38 321 255
0.0023354399 0.66600001 -0.017515799 1.5951308e-38 322 255
0.0035031599 0.66600001 -0.017515799 1.5859113e-38 323 255
0.0046568532 0.66399997 -0.0174632 1.5951664e-38 324 255
0.0058210664 0.66399997 -0.0174632 1.6412284e-38 325 255
0.0069852793 0.66399997 -0.0174632 1.7056207e-38 326 255
0.0081372196 0.66299999 -0.017436899 1.5120099e-38 327 255
0.0092996797 0.66299999 -0.017436899 1.2908117e-38 328 255
0.01044636 0.662 -0.017410601 1.1617378e-38 329 255
0.011607066 0.662 -0.017410601 1.4104139e-38 330 255
0.012767773 0.662 -0.017410601 1.4749509e-38 331 255
0.01392848 0.662 -0.017410601 1.4564393e-38 332 255
0.015089186 0.662 -0.017410601 1.438e-38 333 255
0.016249891 0.662 -0.017410601 1.4287802e-38 334 255
0.017410601 0.662 -0.017410601 1.4195606e-38 335 255
0.018599359 0.66299999 -0.017436899 1.4194887e-38 336 255
0.019761819 0.66299999 -0.017436899 1.4287083e-38 337 255
0.020924279 0.66299999 -0.017436899 1.4195253e-38 338 255
0.02208674 0.66299999 -0.017436899 1.44722e-38 339 255
0.023284266 0.66399997 -0.0174632 1.3735724e-38 340 255
0.024448479 0.66399997 -0.0174632 9.9557015e-39 341 255
0.025612691 0.66399997 -0.0174632 1.1156767e-38 342 255
0.026776904 0.66399997 -0.0174632 1.4107026e-38 343 255
0.027941117 0.66399997 -0.0174632 1.41985e-38 344 255
0.02910533 0.66399997 -0.0174632 1.4382531e-38 345 255
0.030269546 0.66399997 -0.0174632 1.4749871e-38 346 255
0.031386416 0.66299999 -0.017436899 1.4749871e-38 347 255
0.032548878 0.66299999 -0.017436899 1.4566915e-38 348 255
0.033711337 0.66299999 -0.017436899 1.4566915e-38 349 255
0.034873798 0.66299999 -0.017436899 1.4382884e-38 350 255
0.036036257 0.66299999 -0.017436899 1.4382884e-38 351 255
0.037198719 0.66299999 -0.017436899 1.4565477e-38 352 255
0.038361177 0.66299999 -0.017436899 1.4104858e-38 353 255
0.039523639 0.66299999 -0.017436899 1.2079067e-38 354 255
0.040686097 0.66299999 -0.017436899 1.0973078e-38 355 255
0.041848559 0.66299999 -0.017436899 1.3644953e-38 356 255
0.043011017 0.66299999 -0.017436899 1.456691e-38 357 255
0.044173479 0.66299999 -0.017436899 1.4750225e-38 358 255
0.045335937 0.66299999 -0.017436899 1.5027172e-38 359 255
0.046498399 0.66299999 -0.017436899 1.5027172e-38 360 255
0.047660857 0.66299999 -0.017436899 1.5395594e-38 361 255
0.048823316 0.66299999 -0.017436899 1.548779e-38 362 255
0.049985778 0.66299999 -0.017436899 1.5579987e-38 363 255
0.051148236 0.66299999 -0.017436899 1.5671102e-38 364 255
0.052310698 0.66299999 -0.017436899 1.5855853e-38 365 255
0.053392503 0.662 -0.017410601 1.5948049e-38 366 255
0.054553211 0.662 -0.017410601 1.1891441e-38 367 255
0.055713918 0.662 -0.017410601 1.1706327e-38 368 255
0.056874625 0.662 -0.017410601 1.5117565e-38 369 255
0.058035329 0.662 -0.017410601 1.6039519e-38 370 255
0.059285458 0.66299999 -0.017436899 1.622391e-38 371 255
0.060447913 0.66299999 -0.017436899 1.6316459e-38 372 255
0.061703302 0.66399997 -0.0174632 1.6316459e-38 373 255
0.062867515 0.66399997 -0.0174632 1.6039503e-38 374 255
0.064321034 0.667 -0.0175421 1.5947306e-38 375 255
0.065490507 0.667 -0.0175421 1.5761837e-38 376 255
0.066759922 0.66799998 -0.017568398 1.5208664e-38 377 255
0.067931145 0.66799998 -0.017568398 1.4103028e-38 378 255
0.069102369 0.66799998 -0.017568398 1.2996322e-38 379 255
0.070483997 0.67000002 -0.017620999 1.4470733e-38 380 255
0.071765684 0.671 -0.0176473 1.5484883e-38 381 255
0.073050871 0.67199999 -0.017673599 1.5852238e-38 382 255
0.074229114 0.67199999 -0.017673599 1.5852238e-38 383 255
0.07563179 0.67400002 -0.0177262 1.5760765e-38 384 255
0.076927498 0.67500001 -0.0177525 1.6037351e-38 385 255
0.078226723 0.676 -0.017778801 1.5853683e-38 386 255
0.079411969 0.676 -0.017778801 1.5945878e-38 387 255
0.080597222 0.676 -0.017778801 1.5671089e-38 388 255
0.082024433 0.67799997 -0.0178314 1.3734981e-38 389 255
0.083213195 0.67799997 -0.0178314 1.1614479e-38 390 255
0.08440195 0.67799997 -0.0178314 1.4933521e-38 391 255
0.085590713 0.67799997 -0.0178314 1.6501204e-38 392 255
0.086779475 0.67799997 -0.0178314 1.5763638e-38 393 255
0.08809799 0.67900002 -0.017857701 1.5762203e-38 394 255
0.089288503 0.67900002 -0.017857701 1.5762203e-38 395 255
0.090479009 0.67900002 -0.017857701 1.4378906e-38 396 255
0.091804534 0.68000001 -0.017883999 1.2350602e-38 397 255
0.093270317 0.68199998 -0.017936599 1.382501e-38 398 255
0.094604604 0.68300003 -0.017962901 1.5115749e-38 399 255
0.096222922 0.68599999 -0.018041799 1.5206866e-38 400 255
0.097567737 0.68699998 -0.018068098 1.5299061e-38 401 255
0.098916054 0.68800002 -0.0180944 1.5391616e-38 402 255
0.1004134 0.69 -0.018146999 1.4746246e-38 403 255
0.10177048 0.69099998 -0.0181733 1.3365473e-38 404 255
0.1032801 0.69300002 -0.018225901 1.3918646e-38 405 255
0.10494751 0.69599998 -0.018304799 1.4748041e-38 406 255
0.10647292 0.69800001 -0.0183574 1.4932074e-38 407 255
0.10800533 0.69999999 -0.018409999 1.4746241e-38 408 255
0.1093887 0.70099998 -0.018436298 1.4561849e-38 409 255
0.11061779 0.70099998 -0.018436298 1.4746243e-38 410 255
0.11567616 0.72500002 -0.0190675 1.4746243e-38 411 255
0.11694734 0.72500002 -0.0190675 1.4654048e-38 412 255
0.11789237 0.72299999 -0.019014901 1.4746243e-38 413 255
0.11916003 0.72299999 -0.019014901 1.4838795e-38 414 255
0.12042769 0.72299999 -0.019014901 1.5022826e-38 415 255
0.12169535 0.72299999 -0.019014901 1.5389801e-38 416 255
-0.10594341 0.72799999 -0.020422826 2.0374881e-38 237 256
-0.10466698 0.72799999 -0.020422826 2.0741143e-38 238 256
-0.10324854 0.727 -0.020394772 2.0187969e-38 239 256
-0.10197386 0.727 -0.020394772 2.0093959e-38 240 256
-0.10069919 0.727 -0.020394772 1.9632982e-38 241 256
-0.099151 0.72500002 -0.020338668 1.9265274e-38 242 256
-0.097879834 0.72500002 -0.020338668 1.9726252e-38 243 256
-0.096608669 0.72500002 -0.020338668 2.037055e-38 244 256
-0.095074497 0.72299999 -0.020282559 2.1292146e-38 245 256
-0.093806833 0.72299999 -0.020282559 2.1384697e-38 246 256
-0.092411183 0.722 -0.020254506 2.1384697e-38 247 256
-0.090766557 0.71899998 -0.020170346 2.1660914e-38 248 256
-0.089505911 0.71899998 -0.020170346 2.1660914e-38 249 256
-0.088367999 0.72000003 -0.020198401 2.1751306e-38 250 256
-0.086984619 0.71899998 -0.020170346 2.1567275e-38 251 256
-0.085485518 0.71700001 -0.020114239 2.1382881e-38 252 256
-0.084228382 0.71700001 -0.020114239 2.0829708e-38 253 256
-0.082855515 0.71600002 -0.020086186 2.0093946e-38 254 256
-0.08125823 0.713 -0.020002026 2.0093946e-38 255 256
-0.080008104 0.713 -0.020002026 2.0462022e-38 256 256
-0.078757972 0.713 -0.020002026 2.0646413e-38 257 256
-0.077507854 0.713 -0.020002026 2.0738609e-38 258 256
-0.076257721 0.713 -0.020002026 2.092264e-38 259 256
-0.075112797 0.71399999 -0.020030079 2.1292502e-38 260 256
-0.073860914 0.71399999 -0.020030079 2.1476893e-38 261 256
-0.072507344 0.713 -0.020002026 2.1661644e-38 262 256
-0.071257219 0.713 -0.020002026 2.1661644e-38 263 256
-0.069810718 0.71100003 -0.01994592 2.1660205e-38 264 256
-0.068467662 0.70999998 -0.019917866 2.156801e-38 265 256
-0.067033432 0.708 -0.01986176 2.1016288e-38 266 256
-0.065699153 0.70700002 -0.019833706 2.1200679e-38 267 256
-0.064368367 0.70599997 -0.019805651 2.0650397e-38 268 256
-0.062951677 0.704 -0.019749546 2.0097225e-38 269 256
-0.06145433 0.70099998 -0.019665385 1.7981404e-38 270 256
-0.060139328 0.69999999 -0.019637333 1.6782861e-38 271 256
-0.058743682 0.69800001 -0.019581227 1.7335319e-38 272 256
-0.05743745 0.69700003 -0.019553173 1.8718253e-38 273 256
-0.056134716 0.69599998 -0.019525118 1.8626777e-38 274 256
-0.054756597 0.69400001 -0.019469013 1.8350548e-38 275 256
-0.053462639 0.69300002 -0.01944096 1.8533142e-38 276 256
-0.05224758 0.69300002 -0.01944096 1.8625338e-38 277 256
-0.050885238 0.69099998 -0.019384852 1.7887422e-38 278 256
-0.049673684 0.69099998 -0.019384852 1.6965107e-38 279 256
-0.04846213 0.69099998 -0.019384852 1.4385783e-38 280 256
-0.047182199 0.69 -0.019356798 1.5583968e-38 281 256
-0.045839146 0.68800002 -0.019300694 1.8163633e-38 282 256
-0.044567976 0.68699998 -0.019272638 1.8255829e-38 283 256
-0.043363437 0.68699998 -0.019272638 1.7795571e-38 284 256
-0.042097531 0.68599999 -0.019244585 1.7795571e-38 285 256
-0.040894743 0.68599999 -0.019244585 1.7886693e-38 286 256
-0.03957624 0.68400002 -0.01918848 1.7886693e-38 287 256
-0.038320854 0.68300003 -0.019160427 1.7703022e-38 288 256
-0.037068974 0.68199998 -0.019132372 1.7795577e-38 289 256
-0.035873197 0.68199998 -0.019132372 1.6046378e-38 290 256
-0.034677424 0.68199998 -0.019132372 1.3925879e-38 291 256
-0.03348165 0.68199998 -0.019132372 1.3925513e-38 292 256
-0.032191198 0.68000001 -0.019076265 1.5492478e-38 293 256
-0.030998932 0.68000001 -0.019076265 1.761046e-38 294 256
-0.029806666 0.68000001 -0.019076265 1.7518264e-38 295 256
-0.028614398 0.68000001 -0.019076265 1.7150205e-38 296 256
-0.027381808 0.67900002 -0.019048214 1.7058009e-38 297 256
-0.026191294 0.67900002 -0.019048214 1.7058009e-38 298 256
-0.024963958 0.67799997 -0.019020159 1.6965813e-38 299 256
-0.023775198 0.67799997 -0.019020159 1.6965457e-38 300 256
-0.022519812 0.676 -0.018964052 1.6873262e-38 301 256
-0.021334561 0.676 -0.018964052 1.6228974e-38 302 256
-0.020149305 0.676 -0.018964052 1.4938235e-38 303 256
-0.018964052 0.676 -0.018964052 1.2727335e-38 304 256
-0.0177525 0.67500001 -0.018935999 1.3003562e-38 305 256
-0.016569 0.67500001 -0.018935999 1.6411921e-38 306 256
-0.015362706 0.67400002 -0.018907947 1.6411921e-38 307 256
-0.01418096 0.67400002 -0.018907947 1.6411921e-38 308 256
-0.012999214 0.67400002 -0.018907947 1.6411921e-38 309 256
-0.011782399 0.67199999 -0.018851839 1.6411918e-38 310 256
-0.010604159 0.67199999 -0.018851839 1.6319722e-38 311 256
-0.0094118929 0.671 -0.018823786 1.6228246e-38 312 256
-0.0082354061 0.671 -0.018823786 1.6044213e-38 313 256
-0.0070589199 0.671 -0.018823786 1.5767633e-38 314 256
-0.0058824331 0.671 -0.018823786 1.5583602e-38 315 256
-0.0047059464 0.671 -0.018823786 1.3280872e-38 316 256
-0.0035136798 0.66799998 -0.018739626 1.1068537e-38 317 256
-0.0023424532 0.66799998 -0.018739626 1.4291787e-38 318 256
-0.0011712266 0.66799998 -0.018739626 1.5766917e-38 319 256
0 0.667 -0.018711573 1.5674724e-38 320 256
0.0011694733 0.667 -0.018711573 1.576692e-38 321 256
0.0023354399 0.66600001 -0.018683519 1.6042425e-38 322 256
0.0035031599 0.66600001 -0.018683519 1.6042425e-38 323 256
0.0046708798 0.66600001 -0.018683519 1.5767633e-38 324 256
0.0058210664 0.66399997 -0.018627413 1.6228971e-38 325 256
0.0069852793 0.66399997 -0.018627413 1.6413358e-38 326 256
0.0081372196 0.66299999 -0.018599359 1.3924076e-38 327 256
0.0092996797 0.66299999 -0.018599359 1.2355306e-38 328 256
0.01046214 0.66299999 -0.018599359 1.1617741e-38 329 256
0.0116246 0.66299999 -0.018599359 1.4104858e-38 330 256
0.012787059 0.66299999 -0.018599359 1.4658032e-38 331 256
0.013949519 0.66299999 -0.018599359 1.4655508e-38 332 256
0.015111978 0.66299999 -0.018599359 1.4471117e-38 333 256
0.016274439 0.66299999 -0.018599359 1.4103055e-38 334 256
0.017436899 0.66299999 -0.018599359 1.4103055e-38 335 256
0.018599359 0.66299999 -0.018599359 1.4195609e-38 336 256
0.019761819 0.66299999 -0.018599359 1.4287804e-38 337 256
0.020924279 0.66299999 -0.018599359 1.4104136e-38 338 256
0.022120051 0.66399997 -0.018627413 1.4472919e-38 339 256
0.023284266 0.66399997 -0.018627413 1.3643531e-38 340 256
0.024448479 0.66399997 -0.018627413 9.5869232e-39 341 256
0.025612691 0.66399997 -0.018627413 1.1340801e-38 342 256
0.026776904 0.66399997 -0.018627413 1.4198865e-38 343 256
0.027941117 0.66399997 -0.018627413 1.447401e-38 344 256
0.02910533 0.66399997 -0.018627413 1.447401e-38 345 256
0.030269546 0.66399997 -0.018627413 1.4749874e-38 346 256
0.031433757 0.66399997 -0.018627413 1.4749874e-38 347 256
0.03259797 0.66399997 -0.018627413 1.4474364e-38 348 256
0.033711337 0.66299999 -0.018599359 1.4474364e-38 349 256
0.034873798 0.66299999 -0.018599359 1.4474364e-38 350 256
0.036036257 0.66299999 -0.018599359 1.4382168e-38 351 256
0.037198719 0.66299999 -0.018599359 1.4381449e-38 352 256
0.038361177 0.66299999 -0.018599359 1.373608e-38 353 256
0.039523639 0.66299999 -0.018599359 1.1985802e-38 354 256
0.040686097 0.66299999 -0.018599359 1.1525182e-38 355 256
0.041848559 0.66299999 -0.018599359 1.3921546e-38 356 256
0.043011017 0.66299999 -0.018599359 1.4659112e-38 357 256
0.044173479 0.66299999 -0.018599359 1.4659112e-38 358 256
0.045335937 0.66299999 -0.018599359 1.4843143e-38 359 256
0.046498399 0.66299999 -0.018599359 1.4935342e-38 360 256
0.047660857 0.66299999 -0.018599359 1.5119733e-38 361 256
0.048823316 0.66299999 -0.018599359 1.5395597e-38 362 256
0.049985778 0.66299999 -0.018599359 1.5487792e-38 363 256
0.051148236 0.66299999 -0.018599359 1.548779e-38 364 256
0.052310698 0.66299999 -0.018599359 1.5672541e-38 365 256
0.053473156 0.66299999 -0.018599359 1.5672541e-38 366 256
0.054635618 0.66299999 -0.018599359 1.1154955e-38 367 256
0.055798076 0.66299999 -0.018599359 1.1614131e-38 368 256
0.056960538 0.66299999 -0.018599359 1.5209762e-38 369 256
0.058122993 0.66299999 -0.018599359 1.6039519e-38 370 256
0.059285458 0.66299999 -0.018599359 1.622391e-38 371 256
0.060447913 0.66299999 -0.018599359 1.613279e-38 372 256
0.061703302 0.66399997 -0.018627413 1.613279e-38 373 256
0.063056879 0.66600001 -0.018683519 1.6131343e-38 374 256
0.064321034 0.667 -0.018711573 1.5854755e-38 375 256
0.065490507 0.667 -0.018711573 1.5761121e-38 376 256
0.066759922 0.66799998 -0.018739626 1.5115752e-38 377 256
0.067931145 0.66799998 -0.018739626 1.3826801e-38 378 256
0.069309272 0.67000002 -0.018795732 1.3181432e-38 379 256
0.070483997 0.67000002 -0.018795732 1.4746243e-38 380 256
0.071765684 0.671 -0.018823786 1.5852591e-38 381 256
0.073050871 0.67199999 -0.018851839 1.5668926e-38 382 256
0.074229114 0.67199999 -0.018851839 1.5576729e-38 383 256
0.07563179 0.67400002 -0.018907947 1.5669289e-38 384 256
0.076927498 0.67500001 -0.018935999 1.5761484e-38 385 256
0.078226723 0.676 -0.018964052 1.576149e-38 386 256
0.079411969 0.676 -0.018964052 1.5945881e-38 387 256
0.080597222 0.676 -0.018964052 1.5485979e-38 388 256
0.082024433 0.67799997 -0.019020159 1.3642067e-38 389 256
0.083213195 0.67799997 -0.019020159 1.2350246e-38 390 256
0.08440195 0.67799997 -0.019020159 1.539306e-38 391 256
0.085590713 0.67799997 -0.019020159 1.6316812e-38 392 256
0.086779475 0.67799997 -0.019020159 1.5763638e-38 393 256
0.08809799 0.67900002 -0.019048214 1.5946231e-38 394 256
0.089288503 0.67900002 -0.019048214 1.576184e-38 395 256
0.090479009 0.67900002 -0.019048214 1.4746612e-38 396 256
0.091804534 0.68000001 -0.019076265 1.2718308e-38 397 256
0.093270317 0.68199998 -0.019132372 1.3548785e-38 398 256
0.094604604 0.68300003 -0.019160427 1.4932079e-38 399 256
0.0959424 0.68400002 -0.01918848 1.5206866e-38 400 256
0.097425714 0.68599999 -0.019244585 1.5206866e-38 401 256
0.098916054 0.68800002 -0.019300694 1.5115752e-38 402 256
0.1004134 0.69 -0.019356798 1.4378187e-38 403 256
0.10177048 0.69099998 -0.019384852 1.2904855e-38 404 256
0.1032801 0.69300002 -0.01944096 1.3826451e-38 405 256
0.10494751 0.69599998 -0.019525118 1.4656565e-38 406 256
0.10647292 0.69800001 -0.019581227 1.4656565e-38 407 256
0.10800533 0.69999999 -0.019637333 1.4654045e-38 408 256
0.1093887 0.70099998 -0.019665385 1.4469652e-38 409 256
0.11061779 0.70099998 -0.019665385 1.4746965e-38 410 256
0.11567616 0.72500002 -0.020338668 1.4746965e-38 411 256
0.11694734 0.72500002 -0.020338668 1.4654048e-38 412 256
0.11789237 0.72299999 -0.020282559 1.4654048e-38 413 256
0.11916003 0.72299999 -0.020282559 1.4746241e-38 414 256
0.12042769 0.72299999 -0.020282559 1.4838795e-38 415 256
0.12169535 0.72299999 -0.020282559 1.5389798e-38 416 256
-0.1045232 0.727 -0.021669446 2.0186874e-38 238 257
-0.10324854 0.727 -0.021669446 1.9173081e-38 239 257
-0.10197386 0.727 -0.021669446 1.9170185e-38 240 257
-0.10069919 0.727 -0.021669446 1.8063837e-38 241 257
-0.099151 0.72500002 -0.021609833 1.7328074e-38 242 257
-0.097879834 0.72500002 -0.021609833 1.7696497e-38 243 257
-0.096608669 0.72500002 -0.021609833 1.8897583e-38 244 257
-0.095074497 0.72299999 -0.021550218 2.0833691e-38 245 257
-0.093677096 0.722 -0.021520413 2.1846401e-38 246 257
-0.092027202 0.71899998 -0.021430992 2.1569815e-38 247 257
-0.090514079 0.71700001 -0.021371379 2.1567278e-38 248 257
-0.089256942 0.71700001 -0.021371379 2.0921909e-38 249 257
-0.087999798 0.71700001 -0.021371379 2.0276537e-38 250 257
-0.086742654 0.71700001 -0.021371379 2.0092145e-38 251 257
-0.085366286 0.71600002 -0.021341572 1.9907044e-38 252 257
-0.083875954 0.71399999 -0.021281958 1.9907044e-38 253 257
-0.082508355 0.713 -0.021252153 2.009324e-38 254 257
-0.081030294 0.71100003 -0.021192541 2.092264e-38 255 257
-0.079783678 0.71100003 -0.021192541 2.1292502e-38 256 257
-0.078537062 0.71100003 -0.021192541 2.1845676e-38 257 257
-0.077290438 0.71100003 -0.021192541 2.2122618e-38 258 257
-0.076043822 0.71100003 -0.021192541 2.1937868e-38 259 257
-0.074797198 0.71100003 -0.021192541 2.2213735e-38 260 257
-0.073550582 0.71100003 -0.021192541 2.1844954e-38 261 257
-0.072303966 0.71100003 -0.021192541 2.1661639e-38 262 257
-0.070957392 0.70999998 -0.021162732 2.184567e-38 263 257
-0.069712527 0.70999998 -0.021162732 2.2396679e-38 264 257
-0.068274796 0.708 -0.021103119 2.2488874e-38 265 257
-0.066938758 0.70700002 -0.021073313 2.156801e-38 266 257
-0.065606222 0.70599997 -0.021043506 2.1107392e-38 267 257
-0.064368367 0.70599997 -0.021043506 2.0465279e-38 268 257
-0.062951677 0.704 -0.020983893 1.9819909e-38 269 257
-0.06145433 0.70099998 -0.020894472 1.7427512e-38 270 257
-0.060139328 0.69999999 -0.020864666 1.7335315e-38 271 257
-0.058743682 0.69800001 -0.020805053 1.8441662e-38 272 257
-0.05743745 0.69700003 -0.020775247 1.8810805e-38 273 257
-0.056134716 0.69599998 -0.020745439 1.8442741e-38 274 257
-0.054756597 0.69400001 -0.020685827 1.8442741e-38 275 257
-0.053462639 0.69300002 -0.020656019 1.8532786e-38 276 257
-0.05224758 0.69300002 -0.020656019 1.862534e-38 277 257
-0.050885238 0.69099998 -0.020596405 1.6967261e-38 278 257
-0.049673684 0.69099998 -0.020596405 1.5215545e-38 279 257
-0.048391998 0.69 -0.020566599 1.5306658e-38 280 257
-0.047182199 0.69 -0.020566599 1.7058375e-38 281 257
-0.045839146 0.68800002 -0.020506985 1.853206e-38 282 257
-0.044567976 0.68699998 -0.020477179 1.8255832e-38 283 257
-0.043363437 0.68699998 -0.020477179 1.788777e-38 284 257
-0.042097531 0.68599999 -0.020447372 1.7795574e-38 285 257
-0.040775519 0.68400002 -0.020387759 1.7703378e-38 286 257
-0.039518382 0.68300003 -0.020357953 1.7703378e-38 287 257
-0.038320854 0.68300003 -0.020357953 1.7610827e-38 288 257
-0.037068974 0.68199998 -0.020328145 1.7703022e-38 289 257
-0.035873197 0.68199998 -0.020328145 1.5309535e-38 290 257
-0.034677424 0.68199998 -0.020328145 1.3096841e-38 291 257
-0.03348165 0.68199998 -0.020328145 1.4754207e-38 292 257
-0.032191198 0.68000001 -0.020268533 1.6229337e-38 293 257
-0.030998932 0.68000001 -0.020268533 1.7517911e-38 294 257
-0.029806666 0.68000001 -0.020268533 1.7517911e-38 295 257
-0.028614398 0.68000001 -0.020268533 1.733352e-38 296 257
-0.027381808 0.67900002 -0.020238725 1.7241324e-38 297 257
-0.026191294 0.67900002 -0.020238725 1.7241321e-38 298 257
-0.024963958 0.67799997 -0.020208918 1.6965095e-38 299 257
-0.023775198 0.67799997 -0.020208918 1.6873262e-38 300 257
-0.022519812 0.676 -0.020149305 1.6965457e-38 301 257
-0.021334561 0.676 -0.020149305 1.6044949e-38 302 257
-0.020149305 0.676 -0.020149305 1.3647862e-38 303 257
-0.018964052 0.676 -0.020149305 1.2634784e-38 304 257
-0.017778801 0.676 -0.020149305 1.3925523e-38 305 257
-0.016569 0.67500001 -0.020119499 1.6687429e-38 306 257
-0.0153855 0.67500001 -0.020119499 1.6687429e-38 307 257
-0.01418096 0.67400002 -0.020089693 1.6319725e-38 308 257
-0.012999214 0.67400002 -0.020089693 1.6411921e-38 309 257
-0.011817466 0.67400002 -0.020089693 1.6319722e-38 310 257
-0.010604159 0.67199999 -0.020030079 1.6319722e-38 311 257
-0.0094118929 0.671 -0.020000271 1.5952017e-38 312 257
-0.0082354061 0.671 -0.020000271 1.5952017e-38 313 257
-0.0070589199 0.671 -0.020000271 1.5766914e-38 314 257
-0.0058824331 0.671 -0.020000271 1.5029349e-38 315 257
-0.0047059464 0.671 -0.020000271 1.2819534e-38 316 257
-0.0035294599 0.671 -0.020000271 1.1436599e-38 317 257
-0.0023494666 0.67000002 -0.019970467 1.4568374e-38 318 257
-0.0011747333 0.67000002 -0.019970467 1.5951308e-38 319 257
0 0.66799998 -0.019910853 1.5674724e-38 320 257
0.0011694733 0.667 -0.019881045 1.5674724e-38 321 257
0.0023389466 0.667 -0.019881045 1.5859115e-38 322 257
0.0035031599 0.66600001 -0.019851239 1.5859115e-38 323 257
0.0046708798 0.66600001 -0.019851239 1.5767636e-38 324 257
0.0058385995 0.66600001 -0.019851239 1.6044583e-38 325 257
0.0069852793 0.66399997 -0.019791625 1.6136776e-38 326 257
0.0081494926 0.66399997 -0.019791625 1.3555298e-38 327 257
0.0093137063 0.66399997 -0.019791625 1.1895051e-38 328 257
0.01046214 0.66299999 -0.019761819 1.1434432e-38 329 257
0.0116246 0.66299999 -0.019761819 1.4288173e-38 330 257
0.012787059 0.66299999 -0.019761819 1.4656957e-38 331 257
0.013949519 0.66299999 -0.019761819 1.4563315e-38 332 257
0.015134773 0.66399997 -0.019791625 1.447112e-38 333 257
0.016298985 0.66399997 -0.019791625 1.3919742e-38 334 257
0.0174632 0.66399997 -0.019791625 1.3919742e-38 335 257
0.018627413 0.66399997 -0.019791625 1.3919745e-38 336 257
0.019791625 0.66399997 -0.019791625 1.4011941e-38 337 257
0.020955838 0.66399997 -0.019791625 1.4195256e-38 338 257
0.022120051 0.66399997 -0.019791625 1.4471844e-38 339 257
0.023284266 0.66399997 -0.019791625 1.3459138e-38 340 257
0.024448479 0.66399997 -0.019791625 9.4947262e-39 341 257
0.02568984 0.66600001 -0.019851239 1.1064573e-38 342 257
0.026776904 0.66399997 -0.019791625 1.410667e-38 343 257
0.027941117 0.66399997 -0.019791625 1.4475082e-38 344 257
0.02910533 0.66399997 -0.019791625 1.4382887e-38 345 257
0.030269546 0.66399997 -0.019791625 1.4474364e-38 346 257
0.031433757 0.66399997 -0.019791625 1.4474364e-38 347 257
0.03259797 0.66399997 -0.019791625 1.4382887e-38 348 257
0.033762183 0.66399997 -0.019791625 1.4382887e-38 349 257
0.034873798 0.66299999 -0.019761819 1.4381812e-38 350 257
0.036036257 0.66299999 -0.019761819 1.4474366e-38 351 257
0.037198719 0.66299999 -0.019761819 1.4474364e-38 352 257
0.038361177 0.66299999 -0.019761819 1.327582e-38 353 257
0.039523639 0.66299999 -0.019761819 1.1340788e-38 354 257
0.040747464 0.66399997 -0.019791625 1.1893602e-38 355 257
0.041911677 0.66399997 -0.019791625 1.4197058e-38 356 257
0.043011017 0.66299999 -0.019761819 1.4934623e-38 357 257
0.044173479 0.66299999 -0.019761819 1.4842071e-38 358 257
0.045335937 0.66299999 -0.019761819 1.4934267e-38 359 257
0.046568532 0.66399997 -0.019791625 1.5210131e-38 360 257
0.047732744 0.66399997 -0.019791625 1.5394522e-38 361 257
0.048896957 0.66399997 -0.019791625 1.5395597e-38 362 257
0.049985778 0.66299999 -0.019761819 1.5395597e-38 363 257
0.051148236 0.66299999 -0.019761819 1.5487074e-38 364 257
0.052310698 0.66299999 -0.019761819 1.5855497e-38 365 257
0.053473156 0.66299999 -0.019761819 1.5762949e-38 366 257
0.054635618 0.66299999 -0.019761819 1.106097e-38 367 257
0.055798076 0.66299999 -0.019761819 1.1798172e-38 368 257
0.056960538 0.66299999 -0.019761819 1.5485639e-38 369 257
0.05821066 0.66399997 -0.019791625 1.585585e-38 370 257
0.059374876 0.66399997 -0.019791625 1.6040242e-38 371 257
0.060539093 0.66399997 -0.019791625 1.6040595e-38 372 257
0.061703302 0.66399997 -0.019791625 1.613279e-38 373 257
0.063056879 0.66600001 -0.019851239 1.6039153e-38 374 257
0.064321034 0.667 -0.019881045 1.5762206e-38 375 257
0.065490507 0.667 -0.019881045 1.5577093e-38 376 257
0.066759922 0.66799998 -0.019910853 1.4747691e-38 377 257
0.067931145 0.66799998 -0.019910853 1.3182158e-38 378 257
0.069309272 0.67000002 -0.019970467 1.2997766e-38 379 257
0.0705892 0.671 -0.020000271 1.4838439e-38 380 257
0.071765684 0.671 -0.020000271 1.5576004e-38 381 257
0.073050871 0.67199999 -0.020030079 1.5393414e-38 382 257
0.074229114 0.67199999 -0.020030079 1.5393414e-38 383 257
0.07563179 0.67400002 -0.020089693 1.5485976e-38 384 257
0.076927498 0.67500001 -0.020119499 1.5578172e-38 385 257
0.078110993 0.67500001 -0.020119499 1.5762206e-38 386 257
0.079411969 0.676 -0.020149305 1.5854402e-38 387 257
0.080597222 0.676 -0.020149305 1.5393784e-38 388 257
0.082024433 0.67799997 -0.020208918 1.3549871e-38 389 257
0.083213195 0.67799997 -0.020208918 1.2720106e-38 390 257
0.08440195 0.67799997 -0.020208918 1.5301584e-38 391 257
0.085590713 0.67799997 -0.020208918 1.6131699e-38 392 257
0.086779475 0.67799997 -0.020208918 1.5762556e-38 393 257
0.08809799 0.67900002 -0.020238725 1.6037348e-38 394 257
0.089288503 0.67900002 -0.020238725 1.5945152e-38 395 257
0.090479009 0.67900002 -0.020238725 1.4655142e-38 396 257
0.091804534 0.68000001 -0.020268533 1.2903067e-38 397 257
0.093270317 0.68199998 -0.020328145 1.3365127e-38 398 257
0.094604604 0.68300003 -0.020357953 1.4840257e-38 399 257
0.0959424 0.68400002 -0.020387759 1.50232e-38 400 257
0.097425714 0.68599999 -0.020447372 1.4931003e-38 401 257
0.098916054 0.68800002 -0.020506985 1.5299064e-38 402 257
0.1004134 0.69 -0.020566599 1.4561499e-38 403 257
0.10177048 0.69099998 -0.020596405 1.2903418e-38 404 257
0.10342913 0.69400001 -0.020685827 1.3825735e-38 405 257
0.10494751 0.69599998 -0.020745439 1.4656567e-38 406 257
0.106778 0.69999999 -0.020864666 1.4564013e-38 407 257
0.10800533 0.69999999 -0.020864666 1.483736e-38 408 257
0.1093887 0.70099998 -0.020894472 1.4561132e-38 409 257
0.11140679 0.70599997 -0.021043506 1.4746965e-38 410 257
0.11264464 0.70599997 -0.021043506 1.4654411e-38 411 257
0.11662471 0.72299999 -0.021550218 1.4837363e-38 412 257
0.11789237 0.72299999 -0.021550218 1.4837363e-38 413 257
0.11916003 0.72299999 -0.021550218 1.4837357e-38 414 257
0.12042769 0.72299999 -0.021550218 1.4929912e-38 415 257
0.12169535 0.72299999 -0.021550218 1.5206123e-38 416 257
-0.10294171 0.71600002 -0.022596961 1.779159e-38 238 258
-0.10168632 0.71600002 -0.022596961 1.8713545e-38 239 258
-0.10043094 0.71600002 -0.022596961 2.0736808e-38 240 258
-0.10000663 0.722 -0.022786319 2.0183993e-38 241 258
-0.098740719 0.722 -0.022786319 1.7605031e-38 242 258
-0.097474813 0.722 -0.022786319 1.5023553e-38 243 258
-0.096342154 0.72299999 -0.02281788 1.5305916e-38 244 258
-0.094943002 0.722 -0.022786319 1.8624959e-38 245 258
-0.0934176 0.72000003 -0.022723202 2.0553512e-38 246 258
-0.091771215 0.71700001 -0.02262852 2.0000338e-38 247 258
-0.090387844 0.71600002 -0.022596961 1.9723731e-38 248 258
-0.089132458 0.71600002 -0.022596961 1.9723731e-38 249 258
-0.087877065 0.71600002 -0.022596961 1.9636208e-38 250 258
-0.086379714 0.71399999 -0.022533838 2.0096827e-38 251 258
-0.085127831 0.71399999 -0.022533838 2.1107389e-38 252 258
-0.083523542 0.71100003 -0.022439159 2.129178e-38 253 258
-0.082161188 0.70999998 -0.022407599 2.1476896e-38 254 258
-0.08091633 0.70999998 -0.022407599 2.1476896e-38 255 258
-0.079671465 0.70999998 -0.022407599 2.1752761e-38 256 258
-0.0784266 0.70999998 -0.022407599 2.1844957e-38 257 258
-0.077181734 0.70999998 -0.022407599 2.1937868e-38 258 258
-0.075936861 0.70999998 -0.022407599 2.1937868e-38 259 258
-0.074691996 0.70999998 -0.022407599 2.1938224e-38 260 258
-0.073447131 0.70999998 -0.022407599 2.1661639e-38 261 258
-0.071998879 0.708 -0.022344479 2.1842786e-38 262 258
-0.070757516 0.708 -0.022344479 2.1289612e-38 263 258
-0.069516152 0.708 -0.022344479 2.0920463e-38 264 258
-0.068178371 0.70700002 -0.022312919 2.0275093e-38 265 258
-0.066844068 0.70599997 -0.022281358 1.9170558e-38 266 258
-0.065606222 0.70599997 -0.022281358 1.8986166e-38 267 258
-0.064186029 0.704 -0.022218239 1.8620643e-38 268 258
-0.062951677 0.704 -0.022218239 1.8344415e-38 269 258
-0.06145433 0.70099998 -0.022123558 1.7333154e-38 270 258
-0.060139328 0.69999999 -0.022091998 1.8531338e-38 271 258
-0.058743682 0.69800001 -0.02202888 1.9454016e-38 272 258
-0.05743745 0.69700003 -0.02199732 1.9361821e-38 273 258
-0.056134716 0.69599998 -0.021965759 1.8901566e-38 274 258
-0.054756597 0.69400001 -0.021902639 1.8901566e-38 275 258
-0.053462639 0.69300002 -0.021871079 1.862534e-38 276 258
-0.05224758 0.69300002 -0.021871079 1.862534e-38 277 258
-0.050885238 0.69099998 -0.021807959 1.558577e-38 278 258
-0.049673684 0.69099998 -0.021807959 1.4295031e-38 279 258
-0.048391998 0.69 -0.021776399 1.6504482e-38 280 258
-0.047182199 0.69 -0.021776399 1.7703025e-38 281 258
-0.045839146 0.68800002 -0.021713281 1.8348392e-38 282 258
-0.044567976 0.68699998 -0.021681719 1.7979968e-38 283 258
-0.043363437 0.68699998 -0.021681719 1.7978889e-38 284 258
-0.042097531 0.68599999 -0.021650158 1.7886693e-38 285 258
-0.040775519 0.68400002 -0.02158704 1.7520066e-38 286 258
-0.039518382 0.68300003 -0.02155548 1.7520066e-38 287 258
-0.038320854 0.68300003 -0.02155548 1.7610463e-38 288 258
-0.037068974 0.68199998 -0.021523919 1.7610463e-38 289 258
-0.035873197 0.68199998 -0.021523919 1.4755286e-38 290 258
-0.034677424 0.68199998 -0.021523919 1.2819178e-38 291 258
-0.03348165 0.68199998 -0.021523919 1.5674724e-38 292 258
-0.032191198 0.68000001 -0.0214608 1.6872909e-38 293 258
-0.030998932 0.68000001 -0.0214608 1.7056934e-38 294 258
-0.029806666 0.68000001 -0.0214608 1.733352e-38 295 258
-0.028614398 0.68000001 -0.0214608 1.7332801e-38 296 258
-0.027381808 0.67900002 -0.021429239 1.7148051e-38 297 258
-0.026191294 0.67900002 -0.021429239 1.6964739e-38 298 258
-0.024963958 0.67799997 -0.021397678 1.6872542e-38 299 258
-0.023775198 0.67799997 -0.021397678 1.6872542e-38 300 258
-0.022519812 0.676 -0.021334561 1.7241324e-38 301 258
-0.021334561 0.676 -0.021334561 1.5491772e-38 302 258
-0.020149305 0.676 -0.021334561 1.2449675e-38 303 258
-0.018964052 0.676 -0.021334561 1.3095761e-38 304 258
-0.017778801 0.676 -0.021334561 1.4939673e-38 305 258
-0.016569 0.67500001 -0.021303 1.6872179e-38 306 258
-0.0153855 0.67500001 -0.021303 1.6687429e-38 307 258
-0.014202001 0.67500001 -0.021303 1.6319725e-38 308 258
-0.012999214 0.67400002 -0.021271439 1.6319725e-38 309 258
-0.011817466 0.67400002 -0.021271439 1.641084e-38 310 258
-0.010604159 0.67199999 -0.021208318 1.6318645e-38 311 258
-0.0094259195 0.67199999 -0.021208318 1.613533e-38 312 258
-0.00824768 0.67199999 -0.021208318 1.613533e-38 313 258
-0.0070694401 0.67199999 -0.021208318 1.5859469e-38 314 258
-0.0058824331 0.671 -0.021176759 1.4199587e-38 315 258
-0.0047059464 0.671 -0.021176759 1.2082688e-38 316 258
-0.0035294599 0.671 -0.021176759 1.1990133e-38 317 258
-0.0023494666 0.67000002 -0.0211452 1.5212301e-38 318 258
-0.0011747333 0.67000002 -0.0211452 1.6134258e-38 319 258
0 0.66799998 -0.021082079 1.5674003e-38 320 258
0.0011694733 0.667 -0.021050518 1.5766198e-38 321 258
0.0023389466 0.667 -0.021050518 1.5766198e-38 322 258
0.0035031599 0.66600001 -0.02101896 1.5766198e-38 323 258
0.0046708798 0.66600001 -0.02101896 1.5766914e-38 324 258
0.0058385995 0.66600001 -0.02101896 1.6227892e-38 325 258
0.0070063197 0.66600001 -0.02101896 1.6595236e-38 326 258
0.0081494926 0.66399997 -0.020955838 1.3829007e-38 327 258
0.0093137063 0.66399997 -0.020955838 1.1434429e-38 328 258
0.010477919 0.66399997 -0.020955838 1.1710657e-38 329 258
0.011642133 0.66399997 -0.020955838 1.4288167e-38 330 258
0.012806346 0.66399997 -0.020955838 1.4472919e-38 331 258
