# .PCD v0.7 - Point Cloud Data file format
VERSION 0.7
FIELDS x y z
SIZE 4 4 4
TYPE F F F
COUNT 1 1 1
WIDTH 1344
HEIGHT 1
VIEWPOINT 0 0 0 1 0 0 0
POINTS 1344
DATA ascii
-3.3586562e-05 0.76511317 0.017658275
0.00071392755 0.76609641 0.019404644
0.00058506534 0.76672202 0.020287391
0.00089858018 0.76754099 0.021613467
0.0012127603 0.76835275 0.02295634
0.0019834875 0.76943028 0.024770392
0.0023025684 0.77029455 0.026110662
0.0030876778 0.77148712 0.027900651
0.0029453684 0.77211887 0.028739791
0.0042066979 0.77372432 0.030969957
0.004060498 0.77437758 0.031782746
0.0053345542 0.77611643 0.033977717
0.021702547 0.78917849 -0.023128673
0.019896327 0.7853837 -0.022718042
0.018991804 0.78323048 -0.022259803
0.019129217 0.78264362 -0.021935504
0.017542075 0.77966517 -0.021251407
0.01471025 0.77540487 -0.019931838
0.014139821 0.77401727 -0.019269533
0.012363405 0.77144027 -0.017970018
0.010569473 0.76905537 -0.016513262
0.010507391 0.76822102 -0.015932715
0.0092524327 0.76642537 -0.01465797
0.0085686808 0.76513255 -0.013622275
0.0084518958 0.76423049 -0.012828963
0.0071285306 0.76265126 -0.011320342
0.0063925916 0.76156992 -0.010037798
0.0062035802 0.76078045 -0.0089697484
0.0054324423 0.75993615 -0.0075309849
0.0052235373 0.75932848 -0.0062859906
0.0039296988 0.75873226 -0.0045376457
0.0037107929 0.75840807 -0.0032082612
0.0035004665 0.75815344 -0.0018249464
0.0028071187 0.75803781 -0.00034375594
0.0026103999 0.75801378 0.0010566615
0.0024261642 0.75809258 0.0024567374
0.0022549331 0.75825894 0.003845932
0.0020852028 0.75852144 0.0052065826
0.0019303847 0.7588914 0.0065442664
0.0017837943 0.75931436 0.0078241695
0.0016478837 0.75981599 0.0090778098
0.0015140619 0.76036531 0.010268927
0.0013888314 0.7609728 0.011405148
0.0012657463 0.76161325 0.012484503
0.0011450083 0.76227367 0.013511134
0.0014635554 0.7630555 0.014851998
0.0013402429 0.76373363 0.015801484
0.001215811 0.76439744 0.016713083
0.0019786037 0.76538527 0.018437633
0.0018438568 0.76600164 0.019340897
0.0021616283 0.76682258 0.020665426
0.0024810233 0.76764756 0.02199693
0.0032598546 0.7687133 0.023806207
0.0035815556 0.76957941 0.025144685
0.0034383552 0.77018535 0.026008889
0.0042271111 0.77137244 0.027795499
0.004551095 0.77230835 0.029099917
0.0058263582 0.77394629 0.031314768
0.0056758407 0.77460223 0.032126918
0.006481756 0.77600306 0.033839509
0.020807913 0.78516042 -0.022014078
0.019940751 0.783014 -0.021577425
0.020100381 0.78243178 -0.02125095
0.018559303 0.77945387 -0.020613058
0.017505806 0.77728075 -0.019955069
0.01580015 0.77444911 -0.018954575
0.014042567 0.77180129 -0.017734665
0.012254114 0.76933169 -0.016352365
0.011626491 0.7679944 -0.015471166
0.010384741 0.76620179 -0.014219297
0.010310995 0.76531929 -0.013507799
0.0096139889 0.76401746 -0.012408447
0.0083020013 0.76245582 -0.010915869
0.0081631979 0.76165158 -0.0099331252
0.0074047735 0.76062077 -0.0085862149
0.0072233896 0.75994056 -0.0074143354
0.0064512668 0.75921607 -0.005947581
0.0062483698 0.75873083 -0.0046207481
0.0049269064 0.75829786 -0.0029262546
0.0047177887 0.75806445 -0.0015431945
0.0045223935 0.75793445 -0.0001432072
0.0043273955 0.75791138 0.0012905588
0.0041349777 0.75799417 0.0027165052
0.0034534163 0.75820476 0.0040255617
0.0032835111 0.75848138 0.0053682732
0.0031228098 0.75884479 0.0066753514
0.0034435142 0.75928187 0.0081481282
0.0028200536 0.75978237 0.0091639636
0.0026802809 0.76034397 0.010331515
0.002542933 0.76093656 0.011446075
0.0028659478 0.76164913 0.012829697
0.0027302834 0.76231438 0.013860131
0.0025978431 0.76299155 0.01483885
0.0033824937 0.76397467 0.016543517
0.0032450005 0.76466882 0.017466815
0.0031069305 0.76531529 0.018372448
0.0034256761 0.76610351 0.019712975
0.0037467773 0.7669192 0.021049663
0.0036066212 0.76752865 0.021926034
0.0043926924 0.76860279 0.023718424
0.0047158506 0.76947629 0.025044546
0.0055112261 0.77063912 0.026839223
0.0058368072 0.7715643 0.02815143
0.0066414699 0.77285087 0.029905068
0.0069692633 0.77383757 0.031188054
0.0077801696 0.77521938 0.032909535
0.0076243086 0.77589363 0.033699263
0.020865945 0.78280091 -0.020895189
0.020500163 0.78143835 -0.020484084
0.019549413 0.7792536 -0.019967571
0.018526474 0.77708238 -0.01933698
0.016849143 0.77426183 -0.018371839
0.015112327 0.77159947 -0.017206918
0.013335098 0.76912719 -0.015867272
0.013328961 0.76829755 -0.0152811
0.012710094 0.76693141 -0.014349837
0.011445328 0.76513231 -0.013058737
0.011384957 0.76424325 -0.012255006
0.01067316 0.76295209 -0.01107286
0.010569414 0.76210123 -0.01007709
0.009183432 0.76074493 -0.0084504783
0.0084164888 0.75986195 -0.0070410781
0.0082392963 0.75926054 -0.005791259
0.0074576163 0.7586745 -0.0042836345
0.0072541013 0.75830692 -0.0028928169
0.0070462744 0.75802815 -0.0014428205
0.006836622 0.75789571 2.9695162e-05
0.006631447 0.75785637 0.0015226039
0.0064204922 0.75793922 0.0030176512
0.0051481202 0.75814962 0.0042923391
0.0049630171 0.75844121 0.0056524691
0.0047909613 0.75882214 0.0069749737
0.0046223123 0.75928998 0.0082558161
0.0044610277 0.7597959 0.0094833821
0.0043045669 0.76037532 0.010658199
0.0041534686 0.7609818 0.011777369
0.0040050289 0.76161689 0.012843051
0.0038604203 0.76227391 0.013855032
0.0046619712 0.76321286 0.015556052
0.0045129592 0.76390731 0.016508434
0.0043673217 0.76458579 0.017422073
0.0046928241 0.7654205 0.018735813
0.0050160917 0.76620638 0.02008749
0.0058178217 0.76724708 0.021882109
0.0056673298 0.76787931 0.022762354
0.0059939413 0.76875448 0.024085671
0.0067974809 0.76991606 0.025872326
0.0071245171 0.77083248 0.027191035
0.0079349838 0.77210486 0.028948504
0.0082644494 0.77308762 0.030236335
0.0090814531 0.77445108 0.031965252
0.0089226607 0.77512294 0.032765292
0.0087627284 0.77579141 0.033554174
0.022770667 0.78420579 -0.020251071
0.021426851 0.78123903 -0.019807003
0.02051503 0.77906185 -0.019319212
0.019519228 0.77690601 -0.018702257
0.017873684 0.77408105 -0.017790075
0.017356493 0.7726686 -0.01711921
0.016212741 0.77061123 -0.016144957
0.015654664 0.76918125 -0.015317181
0.013804227 0.76676929 -0.013863153
0.013803163 0.76586741 -0.013141515
0.012509186 0.76412404 -0.011794102
0.012462676 0.76322991 -0.010891402
0.011732246 0.76203203 -0.0096269343
0.011629736 0.76121461 -0.0085242055
0.010214085 0.76001674 -0.0068728365
0.010062442 0.75939667 -0.0056192023
0.0098894769 0.75886136 -0.0042622285
0.0096946051 0.75845212 -0.0028397865
0.0088604828 0.75807869 -0.001257323
0.0086394213 0.75793231 0.00025582564
0.0078336224 0.75788796 0.0017642218
0.0076294015 0.75797802 0.003230623
0.0074250195 0.75817257 0.0046675578
0.007226082 0.7584753 0.0060898168
0.0070309355 0.75886011 0.0074589257
0.0068384223 0.75933295 0.0087807747
0.0066479882 0.75989759 0.010054595
0.0064635123 0.76049614 0.011263113
0.0062874379 0.76113927 0.012413469
0.0061148354 0.76180881 0.013505099
0.0059492635 0.76247364 0.01454548
0.0062826094 0.76330942 0.015905317
0.0061184908 0.76401484 0.0168586
0.0059600431 0.76468861 0.017779589
0.0062889135 0.76550812 0.019112846
0.007103343 0.76651394 0.02090852
0.0069446294 0.76714969 0.021804171
0.0072734924 0.76802444 0.02312907
0.0080865445 0.76919323 0.024900045
0.0084146783 0.77010852 0.026221067
0.0092313429 0.77136731 0.027979707
0.0095615489 0.7723465 0.029273447
0.010383654 0.77369183 0.03100919
0.010715988 0.77472728 0.032273825
0.010552492 0.77540135 0.033072032
0.011877431 0.77727294 0.035198484
0.011707258 0.77795404 0.035971805
0.023626147 0.7840029 -0.019534966
0.022845052 0.78184623 -0.019154023
0.022529628 0.78046125 -0.01876967
0.02161777 0.77824962 -0.018276572
0.018871155 0.77392066 -0.017196106
0.018978214 0.77317065 -0.016735997
0.01725382 0.7704733 -0.015588823
0.016710946 0.76907045 -0.014764872
0.015501145 0.76714623 -0.013615053
0.01553403 0.76624638 -0.01289682
0.014909831 0.76489145 -0.011834768
0.01357885 0.76315814 -0.010420748
0.013535912 0.76232469 -0.0094229197
0.012780522 0.76119792 -0.0080800131
0.012677884 0.7604599 -0.0068836422
0.012559325 0.75980961 -0.0056012124
0.011071925 0.75891602 -0.0038975854
0.010889706 0.7585144 -0.0025042049
0.01069756 0.75820822 -0.0010566256
0.010478695 0.75803697 0.00048074243
0.0096191745 0.75796956 0.0020185031
0.0094029093 0.75806063 0.0035018928
0.0091888597 0.75826728 0.0049631512
0.0083976211 0.75853908 0.0062339068
0.0082008289 0.75891352 0.0075708297
0.0085581467 0.75942892 0.009096601
0.008352791 0.75998932 0.010375022
0.0081510944 0.76059383 0.011588259
0.0079525243 0.76124507 0.012741655
0.0077628824 0.761926 0.013837282
0.0075802002 0.7625941 0.014878898
0.0079131536 0.76342821 0.016248753
0.0077350298 0.76412481 0.017209709
0.0075644371 0.76480258 0.018134413
0.0083954092 0.76580238 0.019914133
0.0082257977 0.76642817 0.020834411
0.008556175 0.76729286 0.022166515
0.0093804291 0.768457 0.02392775
0.0097087994 0.76938027 0.025247324
0.010531808 0.77063185 0.02700419
0.010861847 0.7716105 0.028301876
0.011689086 0.77294528 0.030039012
0.012021848 0.77398074 0.031308293
0.011856407 0.77464706 0.032120798
0.012688603 0.77610147 0.033803929
0.013018558 0.77718204 0.035033427
0.012843647 0.77785456 0.035808604
0.024911219 0.78460747 -0.018797349
0.023698397 0.78166598 -0.018446455
0.023419667 0.7802909 -0.018078018
0.022541944 0.7780993 -0.017599043
0.021583151 0.77591664 -0.016998705
0.019967154 0.77304953 -0.016124606
0.019500522 0.77159441 -0.015436556
0.018366236 0.76954108 -0.014437529
0.017827325 0.76810688 -0.013567938
0.016598061 0.76619178 -0.012365606
0.015987724 0.76482719 -0.011328477
0.01601219 0.76395118 -0.010422119
0.014648978 0.76231593 -0.0089561166
0.014595113 0.76153117 -0.0078617577
0.014515628 0.76078904 -0.0066554882
0.013719289 0.7598986 -0.005185172
0.013579389 0.75934637 -0.0038299714
0.0134232 0.7588945 -0.0023833506
0.013240467 0.75854677 -0.00086964126
0.01303271 0.75834024 0.00069850119
0.011442875 0.75812167 0.0022634056
0.01121066 0.7582159 0.003762776
0.010972071 0.75840223 0.0052305358
0.010138636 0.75865644 0.0065127136
0.009920151 0.7590484 0.0078671984
0.0097055007 0.75951606 0.009177885
0.0094927382 0.76004577 0.010425843
0.0098429183 0.76072192 0.011909709
0.0096286051 0.7613647 0.013072153
0.0094214091 0.76203698 0.014169076
0.010305645 0.76302385 0.015936442
0.010092502 0.76373386 0.016965307
0.0098869512 0.76444191 0.017948771
0.0096945632 0.76508707 0.018912332
0.010023064 0.76593119 0.020269666
0.0098437592 0.7665844 0.021182984
0.0096740704 0.76722103 0.022075403
0.010506595 0.7683779 0.023825986
0.011838674 0.76989448 0.026020978
0.012168145 0.77086616 0.027326293
0.012999052 0.77220351 0.029059615
0.013331559 0.77323139 0.030336659
0.014172247 0.77467197 0.032035206
0.014508358 0.77574307 0.033286538
0.014332119 0.77642107 0.034081724
0.015172864 0.77791178 0.035761498
0.016018521 0.77941364 0.03745142
0.01634685 0.78048182 0.038695984
0.024976313 0.78407401 -0.018483246
0.025258541 0.78359675 -0.018118385
0.024531201 0.78148133 -0.017750336
0.024784077 0.78093106 -0.017382082
0.02451463 0.77954531 -0.016992543
0.022510834 0.77578485 -0.016352726
0.022115203 0.77433616 -0.015794387
0.021091178 0.77216774 -0.015002203
0.020631444 0.77069128 -0.014250737
0.019491188 0.76861799 -0.013219598
0.018957032 0.76717716 -0.012275907
0.01770748 0.76528329 -0.011030966
0.017777277 0.76440787 -0.010125323
0.017102063 0.76310253 -0.0089157363
0.017103627 0.76229078 -0.007814656
0.015633259 0.76088697 -0.0062222695
0.015545448 0.76024532 -0.0049352092
0.014721157 0.7594921 -0.0034440511
0.014583231 0.75906587 -0.0020333873
0.01440014 0.75872606 -0.00055227918
0.014202198 0.75852627 0.0009651297
0.013959192 0.75845915 0.0025400745
0.013708508 0.75851554 0.0040857783
0.013439368 0.75869477 0.0056154546
0.013170014 0.75897771 0.0071011116
0.012903184 0.75937134 0.0085508237
0.012646951 0.75984603 0.0099388352
0.012388585 0.76039463 0.011259271
0.012136882 0.76101333 0.01251799
0.011898022 0.76166552 0.013704725
0.011661875 0.76232827 0.014829651
0.011428877 0.76302189 0.015899282
0.011208967 0.76371485 0.016915141
0.010998425 0.76439422 0.017892567
0.010802747 0.76503831 0.01884432
0.011136648 0.76587296 0.020193374
0.010955259 0.7665149 0.0211026
0.011800871 0.76764739 0.022851452
0.012132529 0.76857394 0.024162199
0.013479115 0.77012265 0.026342262
0.014314454 0.77144814 0.028078632
0.014645671 0.77249128 0.029352985
0.014470623 0.77316809 0.030182052
0.01531316 0.77461267 0.031867143
0.015647016 0.77567494 0.033115353
0.01546702 0.77634794 0.033909097
0.017347109 0.7786569 0.036488049
0.016122496 0.77849799 0.036359172
0.015932627 0.77916044 0.037122816
0.025731919 0.78385347 -0.017789833
0.026027691 0.78338104 -0.017414611
0.025345743 0.78130144 -0.017060684
0.025602853 0.78076988 -0.016669799
0.025859157 0.78021687 -0.016271414
0.024518052 0.77720195 -0.015820831
0.023607183 0.77499175 -0.015235835
0.022026267 0.77210104 -0.01438163
0.021586496 0.77064764 -0.013644012
0.02046812 0.76859933 -0.01263899
0.02061821 0.76773685 -0.011908358
0.020079685 0.76628804 -0.010907746
0.01880201 0.76443958 -0.0096097477
0.018871818 0.76361227 -0.0086036548
0.018182827 0.76240176 -0.0073215198
0.018176479 0.76165038 -0.0061249542
0.016636979 0.76038957 -0.0045161149
0.016538143 0.75987399 -0.0031693135
0.015687276 0.75924623 -0.0016861199
0.0155215 0.75892693 -0.0002390939
0.015316499 0.75873953 0.0012557505
0.01509137 0.75866538 0.0027611151
0.014836523 0.75871396 0.0042813001
0.014573417 0.75888467 0.0057796976
0.014305228 0.7591579 0.0072254944
0.01404077 0.75953645 0.008644619
0.013780979 0.75998449 0.0099964291
0.013510329 0.76050961 0.011292857
0.013262344 0.76110041 0.012525831
0.013010789 0.76172709 0.013688789
0.012767443 0.7623812 0.014797361
0.012533059 0.76303828 0.015851809
0.012309274 0.76370281 0.016861321
0.012642565 0.76453352 0.018228782
0.012435163 0.7651701 0.019191235
0.012240621 0.76582628 0.020112703
0.013100655 0.76692873 0.021861704
0.012914131 0.76757914 0.022757102
0.013249483 0.76850343 0.024057431
0.01460851 0.77005517 0.026217649
0.014428363 0.7707209 0.027070394
0.015782537 0.77243114 0.029203668
0.015603254 0.77311206 0.030024339
0.016962543 0.77494138 0.032138456
0.016780173 0.77561647 0.032939337
0.01659601 0.77628517 0.03372971
0.01848243 0.77857125 0.036307782
0.017247707 0.77841681 0.036175899
0.017052989 0.77906722 0.036942966
0.026441481 0.78362238 -0.017100185
0.026768468 0.7831701 -0.016721046
0.026153788 0.78112936 -0.016384479
0.026422855 0.78061002 -0.015990738
0.026169797 0.77926558 -0.015591251
0.026430992 0.7786836 -0.015168917
0.025609126 0.77644747 -0.014689103
0.024719099 0.77420151 -0.014069763
0.023131182 0.77128828 -0.013175696
0.022704778 0.76983649 -0.01237584
0.021573037 0.76776642 -0.011332505
0.021052344 0.76634467 -0.010355053
0.021196807 0.76550144 -0.0094456347
0.019877963 0.76370603 -0.0080910306
0.019936642 0.76292962 -0.0070022261
0.019216219 0.7618078 -0.0056527341
0.019186188 0.76117629 -0.0043822094
0.017589005 0.76006722 -0.0027847881
0.017482907 0.75967479 -0.0014057719
0.017337851 0.75936061 1.3190787e-05
0.01714466 0.75915539 0.0015001852
0.016188528 0.75889117 0.0029757363
0.015936824 0.75894034 0.0044618864
0.015685789 0.75909173 0.005908634
0.015414978 0.75935829 0.0073415097
0.015145154 0.75972259 0.0087243877
0.014884762 0.76014376 0.010044658
0.014610524 0.76065856 0.011323408
0.014355461 0.76121056 0.012521442
0.014704101 0.76196361 0.013977978
0.014442321 0.76259172 0.015095421
0.014197368 0.76322448 0.016159607
0.01395965 0.76388174 0.017175725
0.013737127 0.76451313 0.018161416
0.014619496 0.76554316 0.019921409
0.014407024 0.76620424 0.020865504
0.014207059 0.76686895 0.021774601
0.014543233 0.76777995 0.023084927
0.015400188 0.76901376 0.024804993
0.015731748 0.76999688 0.026090831
0.015548999 0.77065569 0.026941307
0.017950777 0.77311611 0.029908281
0.018283045 0.77419883 0.03115638
0.018095624 0.77488691 0.031962328
0.018950408 0.7763589 0.033637695
0.019807125 0.77783448 0.035331257
0.019611768 0.77848637 0.036126401
0.019413527 0.77913052 0.036915127
0.019214096 0.77976429 0.037699915
0.026307125 0.78189129 -0.016459547
0.026608374 0.78142846 -0.016078904
0.027793299 0.78249139 -0.015629986
0.02718229 0.78044754 -0.01528866
0.026959317 0.77912724 -0.014894277
0.027222941 0.77857202 -0.014463402
0.025305334 0.7748493 -0.013917282
0.025566319 0.77414995 -0.013420003
0.023995114 0.77129668 -0.012544305
0.023590013 0.76986957 -0.011760661
0.022488246 0.7678225 -0.010754837
0.022676548 0.76697558 -0.0099564195
0.022148758 0.76559275 -0.0089037241
0.020837218 0.7638616 -0.0075878524
0.020918295 0.76309377 -0.0065152459
0.020210827 0.7620042 -0.0052026138
0.020194095 0.76141173 -0.0039603519
0.018613312 0.76029873 -0.002413468
0.01850988 0.75991744 -0.0010662219
0.018374309 0.75962204 0.00031699723
0.018184653 0.75941736 0.0017665584
0.017972149 0.75931954 0.0032245005
0.017729871 0.75933784 0.0047068018
0.016757302 0.75932163 0.0060438742
0.016491523 0.75956541 0.0074367537
0.016220754 0.75990993 0.0087884245
0.015966294 0.76030773 0.010081882
0.016331613 0.76094347 0.011588192
0.016051456 0.76148278 0.012798324
0.015782431 0.76205838 0.013945891
0.015525053 0.76265687 0.015047533
0.015278047 0.76326722 0.016100872
0.01619236 0.76421577 0.017862909
0.015946593 0.76486444 0.018872647
0.015716324 0.7655279 0.019837622
0.016049467 0.76641089 0.021180822
0.015841279 0.76707727 0.022093311
0.016710399 0.76827931 0.02381881
0.016512671 0.76895934 0.024689898
0.016847929 0.76993841 0.025966359
0.017704215 0.77127206 0.027657388
0.01908238 0.77307516 0.029741567
0.019414429 0.77415788 0.03097905
0.019222548 0.77483845 0.031782858
0.021138893 0.77711511 0.034335114
0.020937281 0.77776545 0.035140995
0.02073676 0.77841121 0.035937596
0.020534651 0.77904356 0.036730934
0.020331923 0.77966535 0.037520636
0.027028039 0.78167665 -0.015805678
0.027328869 0.78122729 -0.015418112
0.028543994 0.78229725 -0.014954166
0.02791509 0.78028536 -0.014604991
0.028205365 0.77977848 -0.014183214
0.028000565 0.77845109 -0.013788872
0.026104527 0.77479565 -0.013266007
0.026358791 0.77413267 -0.012753118
0.026627935 0.77345502 -0.012160915
0.025070651 0.77056533 -0.011272919
0.024684744 0.76910555 -0.010449985
0.023557475 0.7670964 -0.0093836281
0.023052311 0.76575065 -0.0083551332
0.023206461 0.76496667 -0.0073842993
0.021853462 0.76326668 -0.0060366467
0.02191589 0.7626034 -0.0048819617
0.02115682 0.76163048 -0.0035311575
0.021119794 0.76112866 -0.0022328668
0.021033326 0.76072609 -0.00086739624
0.019367386 0.75989705 0.00061074417
0.019197429 0.75970531 0.0020115348
0.018990096 0.75960571 0.0034279588
0.018766036 0.75962043 0.004866817
0.018512122 0.75973618 0.0062875375
0.018242784 0.75995386 0.0076824962
0.01795377 0.76026845 0.0090372683
0.017676022 0.76064414 0.010337936
0.01739149 0.76110369 0.011582194
0.017110521 0.76162344 0.012773154
0.016844613 0.76216787 0.013904898
0.017802959 0.76308519 0.015655555
0.017529156 0.76365483 0.016743362
0.017274419 0.76425093 0.017787404
0.017031331 0.76488376 0.018788399
0.017365104 0.76575768 0.020136315
0.017142734 0.7664035 0.021079643
0.016935013 0.76705617 0.021986563
0.017815372 0.76825428 0.023698436
0.018150164 0.76922786 0.024981573
0.019015523 0.7705521 0.02666961
0.01882001 0.77124 0.027504332
0.020737289 0.77343744 0.02998497
0.020538703 0.77412313 0.030797696
0.021400891 0.77560014 0.032454871
0.022265585 0.77705806 0.034142308
0.022061346 0.77770519 0.034946226
0.021855135 0.77834088 0.035744917
0.021649657 0.77896249 0.036542308
0.021443108 0.77957714 0.037338212
0.029282076 0.78209978 -0.014307077
0.028638288 0.78011554 -0.013942105
0.028943721 0.7796191 -0.013525749
0.028731063 0.77833492 -0.013106346
0.027947642 0.77624297 -0.012660466
0.027109912 0.77412027 -0.01209209
0.027402248 0.77344978 -0.011521428
0.027095439 0.77202266 -0.010814182
0.026135292 0.76986974 -0.0099462867
0.025745047 0.76844156 -0.0090517085
0.024605554 0.76644337 -0.0079533095
0.024079796 0.76514804 -0.0068639745
0.024225524 0.76439911 -0.0058132191
0.022815784 0.76282936 -0.0044382452
0.022845007 0.76224649 -0.0032173973
0.022825852 0.76175416 -0.0019312361
0.021971343 0.76102638 -0.00053136318
0.021852402 0.76071572 0.00084999989
0.021696769 0.76048809 0.002273564
0.019973055 0.7599135 0.0036364817
0.019760521 0.75993258 0.0050216713
0.019518755 0.76001769 0.0064013242
0.019257031 0.76021212 0.0077610174
0.018980041 0.76049596 0.0090765757
0.018702811 0.76085299 0.010353324
0.018425394 0.76127684 0.011572127
0.019437201 0.7621327 0.013304565
0.019144859 0.76263577 0.014472808
0.019475855 0.76335996 0.015916828
0.01919505 0.76392335 0.017011283
0.018931275 0.76453203 0.018058095
0.018681262 0.76515067 0.019065903
0.018445263 0.76578051 0.020035312
0.019347124 0.76692587 0.021757662
0.019120995 0.76758593 0.022680117
0.018910844 0.76824015 0.023574285
0.019251723 0.76920265 0.024850091
0.020125069 0.7705372 0.026516208
0.021527736 0.77232307 0.028575808
0.021858145 0.77341133 0.029804813
0.021655086 0.77409154 0.030613311
0.022519039 0.77555937 0.032262746
0.023386557 0.777004 0.033948585
0.023177207 0.77764469 0.0347519
0.022967525 0.77826995 0.035552904
0.022757897 0.77888292 0.036352649
0.029967206 0.78187817 -0.013654639
0.029343711 0.77993959 -0.013282752
0.029645065 0.7794708 -0.012857681
0.029956507 0.77897966 -0.012433089
0.029717702 0.77769488 -0.011998284
0.028934464 0.77559817 -0.011485925
0.028114013 0.77347285 -0.010871751
0.027828246 0.77207476 -0.010185028
0.028132927 0.77138573 -0.0094671994
0.027181063 0.76922429 -0.0085636145
0.026784694 0.76782346 -0.007607297
0.025614616 0.76588112 -0.0064643491
0.025799608 0.76514781 -0.0054295328
0.025173362 0.76396918 -0.0041982196
0.025252067 0.76335096 -0.0029850963
0.02527979 0.76282954 -0.0016968827
0.023642965 0.76165438 -0.00023866084
0.023550158 0.76134896 0.0011281758
0.023393605 0.7611016 0.0025384375
0.022430621 0.76070213 0.0039311238
0.022197071 0.760674 0.0053517488
0.021953443 0.76074445 0.006751759
0.021663191 0.76090306 0.0081483405
0.021367941 0.76114845 0.0095008444
0.021063006 0.76146942 0.010802072
0.020757923 0.76185435 0.012060374
0.021116408 0.76248956 0.013540181
0.020816581 0.76295781 0.014717876
0.021788325 0.76391882 0.016474102
0.021478649 0.76450032 0.017590845
0.021188365 0.76509005 0.018662447
0.020918706 0.76570624 0.019688658
0.020665392 0.76632929 0.020679388
0.020427817 0.76695764 0.021635696
0.020763811 0.76789051 0.022945946
0.020546908 0.76854163 0.023843477
0.020344298 0.76919985 0.024706362
0.022853743 0.77162552 0.027559815
0.022639215 0.77232105 0.028393742
0.022969855 0.77339584 0.029617865
0.022762908 0.77406824 0.030422729
0.024713475 0.77632838 0.032931056
0.024499815 0.77696216 0.033745829
0.024286984 0.77758712 0.034554213
0.024617366 0.77858937 0.035823982
0.030023465 0.77977091 -0.01264306
0.03033885 0.77931786 -0.012211832
0.030638866 0.77884215 -0.01178108
0.030383963 0.77759939 -0.011350807
0.029602069 0.77556759 -0.010837141
0.028783403 0.77349192 -0.010232372
0.029080428 0.77288043 -0.0095834145
0.028808914 0.771492 -0.0088421348
0.029148402 0.77079403 -0.0080731846
0.027521335 0.76798922 -0.0070579681
0.026379868 0.76607996 -0.0059571657
0.026574859 0.76538944 -0.0049406053
0.026724288 0.76474887 -0.0038294876
0.026062066 0.76367003 -0.0025713525
0.026098849 0.76316172 -0.0013153419
0.026074957 0.76272833 1.5256403e-05
0.024407176 0.7616781 0.0014134498
0.024269702 0.76143652 0.0027774356
0.024097178 0.76130295 0.0041728057
0.023870587 0.7612775 0.0055903927
0.023623927 0.76132751 0.0069760396
0.023334572 0.76144809 0.0083617596
0.023035316 0.76164013 0.0097082658
0.022734569 0.76192886 0.011015724
0.022424251 0.76227438 0.012277712
0.023448808 0.76314658 0.014025813
0.023124864 0.76359898 0.015232324
0.022820394 0.7640965 0.016383704
0.022524644 0.7646358 0.017490223
0.022849435 0.76547533 0.018890226
0.022572316 0.76607656 0.01992262
0.02231239 0.76668519 0.020918738
0.022070328 0.76729786 0.021881314
0.021841865 0.76792884 0.022805071
0.022740584 0.7692256 0.024468815
0.02307439 0.77023387 0.025734862
0.023956701 0.77165467 0.027370073
0.024286319 0.77271855 0.028605804
0.024071561 0.77338833 0.02942588
0.024946159 0.77485418 0.031054271
0.025822937 0.77629387 0.032726977
0.026153745 0.77730763 0.033993598
0.025937006 0.7779184 0.034812029
0.026817365 0.77928853 0.036565483
0.028810043 0.78128201 0.039399572
0.030998237 0.7791605 -0.011579515
0.031304587 0.77870595 -0.011144754
0.031579453 0.77822709 -0.010696794
0.031317398 0.77700019 -0.010196342
0.030529907 0.77498424 -0.0096185682
0.029717498 0.77292591 -0.0089630811
0.03003234 0.77231938 -0.0082612839
0.029766666 0.77094764 -0.0074666813
0.028847395 0.76884532 -0.0065608043
0.028470924 0.76749933 -0.0055922167
0.027289925 0.76566088 -0.0044580307
0.027459649 0.76503599 -0.003382348
0.02757889 0.76447076 -0.0022211738
0.027643373 0.76396149 -0.00098873943
0.026864367 0.76309711 0.00034092821
0.026796322 0.76275325 0.0016828928
0.026675165 0.76249349 0.0030681186
0.026514886 0.76234049 0.0044625513
0.026277203 0.76225364 0.0058944765
0.026016336 0.76224738 0.0073059532
0.025724234 0.76233107 0.0087065576
0.025420738 0.76247907 0.010068458
0.025087649 0.76271027 0.011416031
0.024756039 0.76302981 0.012711482
0.024440497 0.76339328 0.013952472
0.024126973 0.76382548 0.015143713
0.02383347 0.76430053 0.016281459
0.024175018 0.76507884 0.017695487
0.023887778 0.76563013 0.01876203
0.023622369 0.76619345 0.019790113
0.023368051 0.76678646 0.020775829
0.024292193 0.7680127 0.022463305
0.024047542 0.76863331 0.023404155
0.024381306 0.76962912 0.024678944
0.025275752 0.77102596 0.026318189
0.025603445 0.77208281 0.027562827
0.025379049 0.77274406 0.028401533
0.025161145 0.77339661 0.029221833
0.026042394 0.77484578 0.030844815
0.027477525 0.77666146 0.032957092
0.027255526 0.77726984 0.033785041
0.028143182 0.7786364 0.035532817
0.027923806 0.77921909 0.036369797
0.029930605 0.78116852 0.039232712
0.032719381 0.78037244 -0.010979608
0.031944174 0.77853686 -0.010543524
0.032208204 0.77808738 -0.010076624
0.032463927 0.77764308 -0.009561995
0.032754041 0.77718025 -0.0089776339
0.031419374 0.77444255 -0.0083585782
0.03059718 0.77241153 -0.0076422971
0.030916167 0.77182996 -0.0068796044
0.030671438 0.77047026 -0.0060454328
0.029754806 0.76839268 -0.0051091909
0.030039627 0.76775879 -0.0041316617
0.029585468 0.76649189 -0.0030380706
0.029767705 0.76591295 -0.0018976517
0.028356155 0.76430148 -0.00061751623
0.028377431 0.76389712 0.00064520695
0.028334787 0.7635541 0.0019632939
0.028238308 0.76330048 0.0033183137
0.0280832 0.76312906 0.00470107
0.027094381 0.7626462 0.0060216063
0.02684374 0.76263088 0.007398223
0.026596356 0.76269078 0.0087471716
0.026304431 0.76284146 0.010080943
0.026017295 0.76304191 0.011381604
0.025699534 0.76333386 0.012652706
0.025402909 0.76367009 0.013870996
0.025115699 0.76407206 0.015040618
0.025467901 0.76482111 0.016459908
0.025184469 0.76529384 0.017561674
0.024910873 0.76580989 0.018619327
0.025863931 0.76698971 0.020308742
0.025596706 0.76755244 0.02131797
0.025932157 0.76848406 0.02264216
0.025682615 0.76908779 0.023586372
0.026591396 0.7704584 0.025227819
0.026918938 0.7714923 0.026488645
0.026684709 0.77213359 0.027354402
0.027577156 0.7735886 0.028973924
0.027349779 0.77422291 0.029807564
0.028238859 0.77564764 0.031468429
0.028572725 0.77664417 0.032739732
0.029468201 0.77800995 0.034479201
0.029244784 0.77858281 0.035329513
0.031265587 0.78056771 0.038138825
0.033698782 0.77974248 -0.0099648917
0.033969767 0.77933681 -0.0094610704
0.033054914 0.77754223 -0.0089516472
0.033299036 0.77709609 -0.0083639603
0.033049338 0.77590215 -0.0077396729
0.03115399 0.77246213 -0.0070717223
0.031445961 0.77192563 -0.0063069537
0.031761959 0.77138269 -0.0054801796
0.03154213 0.77003419 -0.0046100914
0.031879913 0.76944363 -0.0036536674
0.032186057 0.76888186 -0.0026092308
0.030374479 0.76624447 -0.001473781
0.030515183 0.76575488 -0.00029505399
0.02905295 0.76426232 0.00096356386
0.029031316 0.76394761 0.0022356384
0.028952677 0.76371515 0.0035417553
0.028822623 0.76353335 0.0048740553
0.028636459 0.76342827 0.0062310384
0.02841706 0.76338577 0.0075855833
0.028169408 0.76343942 0.0089252293
0.027896464 0.76355988 0.010244017
0.027604962 0.76374555 0.011541539
0.027306996 0.76400107 0.012799742
0.027012305 0.76430821 0.014021944
0.026728459 0.76467848 0.015188834
0.026444187 0.76508611 0.016322155
0.026174016 0.76552916 0.01741272
0.027152929 0.76668626 0.019086434
0.026882438 0.76718956 0.020130755
0.027225645 0.76808208 0.021467786
0.028158281 0.76938796 0.023134172
0.027896618 0.76997125 0.024093378
0.028227018 0.77097201 0.025372075
0.02798437 0.77158499 0.0262664
0.027752124 0.77219784 0.027136551
0.02865403 0.7736302 0.028748676
0.028423833 0.77424955 0.029580602
0.029888425 0.7760489 0.031670488
0.029660067 0.77663279 0.032518771
0.030564066 0.77797908 0.034265582
0.030338235 0.77853996 0.035120018
0.034604721 0.77913702 -0.008905651
0.034816068 0.77876884 -0.0083692698
0.033850189 0.77700198 -0.0077729695
0.033547562 0.77586669 -0.0071442197
0.033816464 0.77540207 -0.0064568296
0.032974429 0.77350265 -0.0057073636
0.032207161 0.77152324 -0.0049229627
0.031982198 0.7702471 -0.0040751831
0.032313779 0.76970351 -0.0031412842
0.032613821 0.7691859 -0.0021275622
0.031585488 0.76724869 -0.0010633375
0.031781558 0.76675439 8.0204569e-05
0.031157967 0.76573855 0.001281542
0.031187518 0.76539886 0.0025384258
0.031155178 0.76512522 0.003830988
0.031061541 0.76491052 0.0051625939
0.030907243 0.76478165 0.0065076337
0.02917812 0.76380557 0.0076569375
0.0289582 0.76384711 0.0089550335
0.028712284 0.76395702 0.010234224
0.028453425 0.76413149 0.011492715
0.028188558 0.76435268 0.012721244
0.027917571 0.76465124 0.013908935
0.02765057 0.76499331 0.015059104
0.028678533 0.76610994 0.016709395
0.028399924 0.76651329 0.017821994
0.028757412 0.76732844 0.019194234
0.028492251 0.76777864 0.020253815
0.029446825 0.76906419 0.02190751
0.029182743 0.76958269 0.02290782
0.029521162 0.77053106 0.024211964
0.029273016 0.77109885 0.02514204
0.029035317 0.77169043 0.026031055
0.029948333 0.77309448 0.027652165
0.030862352 0.77449745 0.029304454
0.030625356 0.77508175 0.030165982
0.032110468 0.77685708 0.03229557
0.03187963 0.77741158 0.033171862
0.031652275 0.77795309 0.034047361
0.035227966 0.77893329 -0.008342729
0.035413612 0.7785759 -0.007823674
0.034364391 0.7768696 -0.0072149844
0.034593139 0.77648675 -0.0065659098
0.034236353 0.7753858 -0.0058845039
0.033387814 0.77354717 -0.0051513491
0.032611422 0.77165151 -0.0043863342
0.032931414 0.77116936 -0.003534398
0.033247385 0.77068901 -0.0026217345
0.03355711 0.77022284 -0.0016353779
0.03326511 0.76900101 -0.00061417051
0.033511441 0.76855946 0.00049955817
0.03372971 0.76812232 0.0016694904
0.033869598 0.76775235 0.0028998209
0.032460049 0.76613253 0.0040993863
0.032412909 0.76589435 0.0053948574
0.032299995 0.76575381 0.0067052217
0.0313715 0.76515114 0.0079380963
0.031161007 0.76516485 0.0092352163
0.030916484 0.76524621 0.010522835
0.030662175 0.76537687 0.011787948
0.030387022 0.76558292 0.013024829
0.030122273 0.7658211 0.01422896
0.030515624 0.76654273 0.015630212
0.030235594 0.76687002 0.016783025
0.029967716 0.76723218 0.017899331
0.030967688 0.76845628 0.019549632
0.030698689 0.76885307 0.020636067
0.031044234 0.76974845 0.021971703
0.030787479 0.77021468 0.022987988
0.030540459 0.77071726 0.023960691
0.031477515 0.77208209 0.025594456
0.031231944 0.77263284 0.026507497
0.030997856 0.77318341 0.027399868
0.031923387 0.77456337 0.029049264
0.03226937 0.77553082 0.030327797
0.033190567 0.77688122 0.032050304
0.033536229 0.7777943 0.033386227
0.035999 0.77836108 -0.0072971028
0.034829345 0.7767629 -0.0066492949
0.03503054 0.77637994 -0.0060085906
0.034705549 0.77532947 -0.0053541856
0.033811152 0.77355331 -0.0046453485
0.033010446 0.7717424 -0.0038831215
0.033237685 0.77132916 -0.0030263753
0.033541735 0.77089411 -0.0021365839
0.033849914 0.77046376 -0.001183854
0.034103915 0.77007711 -0.00015031977
0.034412485 0.76964521 0.00091474783
0.034030605 0.76852721 0.0020104372
0.03421627 0.76815468 0.0031878864
0.034349483 0.76781279 0.0044132359
0.032937299 0.76632065 0.0055625141
0.032864854 0.76617354 0.0068284413
0.03274427 0.76607925 0.0081067067
0.031829905 0.76560259 0.009254395
0.031625573 0.76568568 0.010493845
0.031409487 0.76580709 0.011719096
0.031854291 0.7664637 0.013101328
0.0316016 0.76668817 0.014291121
0.031353578 0.76694298 0.015454615
0.032397315 0.76817703 0.017053472
0.032135308 0.76847845 0.01819236
0.031885784 0.76879984 0.019305509
0.031640697 0.76917106 0.020378016
0.032005422 0.7700392 0.02170066
0.031766709 0.77047038 0.022712864
0.031536516 0.77093041 0.023685016
0.032492306 0.7722609 0.025313593
0.0322624 0.77275842 0.026241764
0.03379371 0.7745477 0.028265843
0.033561669 0.77506739 0.02917281
0.033329923 0.77559072 0.030064834
0.034263581 0.77690601 0.031799406
0.03529156 0.77661681 -0.0061249789
0.035489779 0.77627057 -0.0055010645
0.035622232 0.77595437 -0.004812086
0.035204127 0.77496177 -0.0040866975
0.035333153 0.77464765 -0.0032687164
0.034489833 0.77292621 -0.0024643224
0.034701843 0.77258426 -0.0015552734
0.034939047 0.77226925 -0.00060744176
0.034309331 0.77036715 0.00026176427
0.03458412 0.76998574 0.001298149
0.034853116 0.76961374 0.0023889379
0.035097126 0.76925319 0.0035201935
0.034685139 0.76819646 0.0046404102
0.03478124 0.7679354 0.0058574663
0.033375211 0.76658309 0.0069431136
0.033303455 0.7664929 0.0081713218
0.034566157 0.767618 0.0096260849
0.032981575 0.76658726 0.010610869
0.032778937 0.76672763 0.011806883
0.033924133 0.76791328 0.013331383
0.033678006 0.76811731 0.014517657
0.033439752 0.76834196 0.015684331
0.03321388 0.76858419 0.016829498
0.032999258 0.76882684 0.017964179
0.033396386 0.76962751 0.019303599
0.033164922 0.76996762 0.020376265
0.03293898 0.77033168 0.021418469
0.032717288 0.77073497 0.022422571
0.033700585 0.77205634 0.024027761
0.034684777 0.77336687 0.025678076
0.034457874 0.77378452 0.02665784
0.034831885 0.77468652 0.02796427
0.034605719 0.77516353 0.028889591
0.035541169 0.77493787 -0.0035818066
0.035615746 0.77466369 -0.0027725406
0.035564341 0.77444363 -0.0018829305
0.034858316 0.77273297 -0.0010973134
0.035039652 0.77245104 -0.00016219495
0.035317522 0.77211529 0.00079723855
0.03469019 0.77028245 0.0016755018
0.03502591 0.76990384 0.002703635
0.035344169 0.76954478 0.0037881574
0.035583533 0.76923132 0.0049173087
0.035110228 0.76831204 0.0060284077
0.035174813 0.76812893 0.0072244168
0.03518644 0.76799756 0.0084351469
0.035076186 0.76799196 0.009648934
0.034940641 0.76805288 0.010851189
0.034763001 0.76816893 0.012043472
0.034571066 0.76833385 0.013211164
0.034370895 0.76851863 0.014363844
0.034170002 0.76875418 0.015488604
0.034604009 0.76953208 0.016802944
0.034431051 0.76973861 0.017928995
0.034237858 0.76999444 0.019028723
0.034033123 0.77032721 0.020071946
0.033845715 0.77064747 0.021112619
0.033649918 0.77100402 0.022117337
0.034656759 0.77231055 0.023707522
0.035664 0.77361995 0.025327716
0.035330046 0.77230275 0.0011973953
0.035640843 0.7720015 0.0021523724
0.03517272 0.77018577 0.0030085288
0.035526685 0.76984453 0.00404948
0.035785835 0.76954383 0.0051340004
0.035393775 0.76863992 0.0061924458
0.035549849 0.76845187 0.0073372852
0.03560137 0.76834065 0.0085059796
0.035542414 0.76834416 0.0096660946
0.035452645 0.76840538 0.010826393
0.035325952 0.76854163 0.011965889
0.035171311 0.76870447 0.013102069
0.035025176 0.7688998 0.014215756
0.035486855 0.76966435 0.015486716
0.035351768 0.76988918 0.016576454
0.035197165 0.77011615 0.017668141
0.035036165 0.77039129 0.018723058
0.034867216 0.77067828 0.019768145
0.034703411 0.77099293 0.020778537
0.035757296 0.77226633 0.022349961
0.035590615 0.77259266 0.023357745
0.035969581 0.76981789 0.0053471336
0.036174376 0.7695722 0.0064336918
0.036420498 0.76938123 0.0075369733
0.036575727 0.76924121 0.0086674932
0.036585521 0.76921099 0.0098062428
0.036548801 0.76927269 0.010933992
0.036461912 0.76940697 0.012047066
0.036364194 0.76958674 0.013154317
0.036266055 0.76975495 0.014252646
0.036112983 0.77001512 0.015311036
0.036010824 0.77028215 0.016334994
0.035910837 0.77048558 0.017396944
0.011752437 0.78558695 0.044478908
0.01310534 0.78648114 0.045741886
0.014488613 0.78788614 0.047571275
0.0091536418 0.78503597 0.043547954
0.010484239 0.78500223 0.043692529
0.011814225 0.78497124 0.043821301
0.013171744 0.78590012 0.045027077
0.014562807 0.78727174 0.046843536
0.015924256 0.7871576 0.047028992
0.017085735 0.78398496 0.043136213
0.018371116 0.78354079 0.042624868
0.009213414 0.78338933 0.041892063
0.010531966 0.78338552 0.041975319
0.011878618 0.78435111 0.043125123
0.01318867 0.78338879 0.042137612
0.01452283 0.7833994 0.042217951
0.015853694 0.78340822 0.042297896
0.017189864 0.78341925 0.042381149
0.018487774 0.78299499 0.041864961
0.019815329 0.78300345 0.041936953
0.021136329 0.7830016 0.04201708
-0.0092748683 0.7832126 0.039889399
-0.0078755626 0.78260398 0.039555438
-0.0065574548 0.7825228 0.039688073
-0.0052353581 0.78244877 0.039807227
-0.0039113858 0.78239363 0.039919008
-0.0025878167 0.7823481 0.040017635
0.0092754746 0.78274411 0.041224357
0.010607518 0.78275484 0.041288313
0.011941266 0.78275788 0.041352697
0.013256581 0.78231329 0.040874794
0.014588423 0.78234744 0.040923562
0.015923835 0.78238559 0.040985201
0.017255366 0.7824142 0.041046295
0.018586578 0.78243804 0.041094705
0.019923825 0.78246033 0.041151807
0.021247657 0.78247309 0.041215293
0.022568183 0.78248495 0.041280456
0.023898892 0.78247166 0.041357793
0.025228716 0.78244895 0.041445129
-0.018907152 0.78564429 0.039762177
-0.017597824 0.78548348 0.039970338
-0.01628411 0.78532237 0.040181722
-0.014587822 0.78292298 0.038643625
-0.013272201 0.78280216 0.03880607
-0.011954765 0.78268838 0.038964991
-0.01063061 0.78258842 0.039106973
-0.0093063032 0.7824921 0.039248247
-0.0079020848 0.78189963 0.038909581
-0.0065787607 0.7818253 0.039033603
-0.0052500097 0.78175497 0.039155129
-0.0039203917 0.7816968 0.039272882
-0.0025902889 0.78165495 0.039380319
-0.0013123103 0.78212464 0.039962828
7.0183887e-05 0.78159416 0.039564066
0.0013964024 0.78157955 0.03964356
0.0026855185 0.78206682 0.040213265
0.0040169526 0.78206241 0.040287051
0.0066786227 0.78206825 0.040409803
0.008009701 0.78207654 0.040478177
0.0093504572 0.78161371 0.040016193
0.010681242 0.7816323 0.040063519
0.012016029 0.78212452 0.040641546
0.013343617 0.78170228 0.040150505
0.014679293 0.78174055 0.040189125
0.016015913 0.78178293 0.040236715
0.017351421 0.78182411 0.040286921
0.018691173 0.78186125 0.040332917
0.020024285 0.78189415 0.040374532
0.021355942 0.78192115 0.040427372
0.02267869 0.78195029 0.040478334
0.024013473 0.78197169 0.040534165
0.025345081 0.78196752 0.04059888
0.026680473 0.78196096 0.040675197
-0.020095548 0.78387493 0.038115293
-0.018783256 0.78370607 0.03832005
-0.017471664 0.78354728 0.038520172
-0.016159542 0.78339738 0.038715992
-0.014638108 0.78219068 0.037994675
-0.013317371 0.78207195 0.038154691
-0.011992691 0.78196305 0.038309231
-0.01066217 0.78186423 0.03845327
-0.0093323849 0.78177398 0.038592633
-0.0079259155 0.78119057 0.038244545
-0.0065973429 0.78112245 0.03836583
-0.0053322352 0.78155011 0.038975764
-0.0039282939 0.78099698 0.038602464
-0.002592307 0.7809487 0.038715255
-0.0013090511 0.78140765 0.039303776
8.0666519e-05 0.78089237 0.038901281
0.0014140445 0.78087807 0.038982805
0.0027493243 0.78087008 0.039054461
0.004081876 0.7808668 0.039124142
0.0054146447 0.78087884 0.03918073
0.0067296829 0.78137612 0.039740603
0.0080697173 0.78139901 0.039790682
0.0094163278 0.78095347 0.039320033
0.010755312 0.78098434 0.039356261
0.012095432 0.78148699 0.039918128
0.013430207 0.78107655 0.039415155
0.014767082 0.78112394 0.039445084
0.016105305 0.78117305 0.039480828
0.017442854 0.78121662 0.039524242
0.01878549 0.78126234 0.039565194
0.020122318 0.78130633 0.039605137
0.021460492 0.78135234 0.03964556
0.022790015 0.78140348 0.039683644
0.024126397 0.78143191 0.039724354
0.02546023 0.7814557 0.039770313
0.026796017 0.7814725 0.03982868
0.028132351 0.78147918 0.039894361
-0.020181442 0.78310633 0.037475366
-0.018861238 0.78294545 0.03767398
-0.017541137 0.78278589 0.037870746
-0.016215948 0.7826333 0.038061604
-0.014685462 0.78145576 0.037321262
-0.01335845 0.78134042 0.037477467
-0.012027833 0.78123462 0.037628621
-0.010693119 0.78113985 0.037771676
-0.0092744511 0.78055632 0.037435327
-0.0079432633 0.78047764 0.037565161
-0.0066116131 0.78040892 0.03768662
-0.0052755275 0.78034556 0.037802435
-0.0039344751 0.78029078 0.037916236
-0.002591911 0.78024292 0.038025279
-0.0012496983 0.7802065 0.038124952
9.2375551e-05 0.78018123 0.038214691
0.0015238978 0.77923346 0.037295245
0.0028540913 0.77922684 0.037367042
0.0042509087 0.77833819 0.036405675
0.005568136 0.77836138 0.0364566
0.0068010539 0.78020662 0.038530003
0.0081410231 0.78024209 0.038574401
0.0095030358 0.77937055 0.037572287
0.010837275 0.77942038 0.037596337
0.012170302 0.78038073 0.038661696
0.013511631 0.78043818 0.038683232
0.014824489 0.7795983 0.037649091
0.016146516 0.77966887 0.037662189
0.017480722 0.77972865 0.03769014
0.018813249 0.77978873 0.037713081
0.020145401 0.77984893 0.037737649
0.021562131 0.78076363 0.038863782
0.02289875 0.78082478 0.038892072
0.024235213 0.78087658 0.038921807
0.025574299 0.78092217 0.038955282
0.026910385 0.78095758 0.03899584
0.02824684 0.78098905 0.039040528
-0.02026136 0.7823351 0.036808703
-0.018934235 0.7821725 0.037004277
-0.017604124 0.78201503 0.037195969
-0.016269248 0.78186792 0.037380215
-0.014731674 0.78071499 0.036628749
-0.013397265 0.78060508 0.036780637
-0.011970325 0.7800113 0.036458034
-0.010634607 0.77992266 0.036594048
-0.0092985928 0.77983654 0.036729157
-0.0079612089 0.77975631 0.036860447
-0.0066211703 0.77968651 0.036982633
-0.0052797836 0.77962852 0.037095595
-0.0039360132 0.77957416 0.037208077
-0.0025890379 0.77952933 0.037313964
-0.0012419578 0.77949244 0.037412278
0.0001058167 0.77947038 0.037498783
0.0015443289 0.77854431 0.036574993
0.0028807174 0.77854031 0.036643863
0.0042854659 0.77767068 0.03568425
0.0056101833 0.77769715 0.035729565
0.0069392328 0.77772927 0.03577251
0.00826497 0.77777463 0.035802227
0.0095916977 0.77782565 0.035823841
0.010905665 0.7787627 0.036871016
0.01224334 0.77882183 0.036888774
0.013574529 0.77889127 0.036900099
0.014909886 0.7789579 0.036912356
0.016240155 0.77903616 0.036919154
0.017573787 0.77910364 0.036932796
0.01890886 0.77916795 0.036950532
0.020242428 0.77923542 0.036966875
0.021572944 0.77931374 0.036983944
0.022908885 0.77939099 0.036998808
0.024240965 0.77947068 0.037010182
0.025571777 0.77955055 0.037019681
0.027025215 0.78042024 0.038161892
0.028363656 0.78046489 0.038196698
0.029707171 0.78051662 0.038233176
-0.020338153 0.78155679 0.036113266
-0.019004073 0.78139323 0.036307342
-0.017665053 0.78124118 0.03649446
-0.016111946 0.78009146 0.035749845
-0.014463265 0.7785632 0.034488078
-0.013140192 0.77845621 0.034634631
-0.011812709 0.77836061 0.034772631
-0.010484006 0.77827054 0.034907117
-0.0093192747 0.77911055 0.036000412
-0.0079755774 0.77903259 0.036129076
-0.0066301292 0.7789607 0.0362534
-0.0052828295 0.77890062 0.036369231
-0.0039335536 0.77885467 0.036474619
-0.002583341 0.7788139 0.036576305
-0.0012321244 0.77878237 0.036671098
0.00022244612 0.77786553 0.035754547
0.0016616603 0.77699894 0.034806944
0.0029932854 0.77699476 0.034873363
0.0043242383 0.77700752 0.034933068
0.0057126451 0.77619183 0.033965942
0.0070342729 0.77621979 0.034008984
0.0083208047 0.77710807 0.035061125
0.0096538803 0.77716106 0.03508744
0.010986295 0.77721608 0.035108253
0.012313385 0.77815467 0.036148977
0.013652819 0.77822882 0.036160421
0.014992642 0.77830464 0.036168762
0.01629878 0.77751833 0.035141565
0.017623873 0.77760196 0.035137933
0.018891685 0.77684689 0.034095686
0.020204455 0.77693897 0.034084313
0.021594524 0.77786547 0.03512821
0.022918718 0.77795637 0.035126474
0.024238974 0.77804703 0.035122193
0.02555934 0.7781409 0.035120293
0.027010901 0.77904767 0.03622127
0.028480228 0.77992547 0.037349354
0.029823629 0.77999055 0.037372682
0.031164691 0.78006196 0.037390858
-0.020164205 0.77979785 0.034464668
-0.018833416 0.77964091 0.034649316
-0.017498707 0.7794928 0.034828071
-0.016159976 0.77935433 0.035000537
-0.014279039 0.77700472 0.032760244
-0.012962251 0.7768957 0.032902293
-0.011643313 0.77679604 0.033038896
-0.010505623 0.77756631 0.034146883
-0.0091685588 0.77748847 0.034272343
-0.0078303693 0.77741182 0.034397356
-0.0064896974 0.77734858 0.034511965
-0.005146489 0.77729636 0.03461976
-0.0038023368 0.77725232 0.034721855
-0.0024561263 0.77722245 0.034813631
-0.0011085965 0.7772029 0.034897603
0.00023911093 0.77718753 0.034978546
0.0017819877 0.77552289 0.033003557
0.0031061822 0.77551943 0.033076718
0.0044292733 0.77552164 0.033142943
0.0057853339 0.77513313 0.032681908
0.0071049435 0.77515763 0.032735858
0.0084115639 0.77560127 0.033285957
0.0097404607 0.77565044 0.033312596
0.011066575 0.77570772 0.03333696
0.012391092 0.77577287 0.033354215
0.01371553 0.77585232 0.033364266
0.015037066 0.77593833 0.033363275
0.01636011 0.77602041 0.033363927
0.017676953 0.77611566 0.033353761
0.018994097 0.77621168 0.033346731
0.020307705 0.77631187 0.033330303
0.021624729 0.77641124 0.03332087
0.023026049 0.77734166 0.034352515
0.024351534 0.77744251 0.03434452
0.025671428 0.7775479 0.034328822
0.026992993 0.77765793 0.034316383
0.028457513 0.77856803 0.035400968
0.029941307 0.77944046 0.036519539
0.031284012 0.77954304 0.036513232
-0.020231854 0.77906799 0.033689681
-0.018518304 0.77757359 0.032445353
-0.01719502 0.7774291 0.032616045
-0.015868541 0.77728981 0.032782901
-0.014313273 0.77633828 0.031961065
-0.012992341 0.7762273 0.03210545
-0.011667269 0.77612478 0.032244448
-0.010338014 0.77603984 0.0323711
-0.0090070795 0.77596337 0.032491092
-0.0076732696 0.77590138 0.032601535
-0.0063379221 0.77584434 0.03270968
-0.0051448829 0.77660429 0.033831172
-0.0037955525 0.77656603 0.033930726
-0.0023201595 0.77573282 0.032992538
-0.0009783553 0.77571154 0.033077098
0.00036327454 0.77568686 0.033163179
0.0018025056 0.77487773 0.032211244
0.0031330856 0.77487057 0.032286778
0.0044999011 0.77447176 0.03184412
0.0058262409 0.77448726 0.031902868
0.007152542 0.77451342 0.031952687
0.0084821954 0.77454233 0.031999808
0.0098095359 0.7745868 0.032037821
0.011128088 0.77504569 0.032570824
0.01245798 0.77511907 0.032584533
0.013787039 0.77520055 0.032591198
0.015116447 0.77528256 0.032597803
0.01644266 0.77537167 0.032596629
0.01776927 0.77546436 0.032594919
0.019089885 0.77556646 0.032582559
0.020409208 0.77567387 0.032564294
0.021729214 0.77577996 0.032552734
0.023045588 0.77588981 0.032534156
0.024360932 0.77600747 0.032513965
0.025668088 0.77613229 0.032483928
0.026905267 0.77587044 0.031923462
0.028194102 0.77600902 0.03189002
0.029491134 0.77615029 0.031847354
0.030888993 0.77669013 0.032340169
0.03219109 0.77684546 0.032293908
-0.020297222 0.77835 0.032886636
-0.018570835 0.77689189 0.031627987
-0.017242152 0.77674067 0.031801231
-0.01590878 0.77660435 0.031965144
-0.014345911 0.7756843 0.031133898
-0.012798964 0.77480453 0.030283902
-0.01148151 0.77469194 0.030425934
-0.010159086 0.77459723 0.030556798
-0.0088339318 0.77451468 0.030677577
-0.0075067938 0.77444625 0.030791266
-0.0063394532 0.77518106 0.031895041
-0.0049976371 0.77513468 0.031997606
-0.0036543573 0.77509946 0.032092832
-0.0023100323 0.77507269 0.03218225
-0.00096488278 0.77505302 0.032266859
0.00038013671 0.77502811 0.03235532
0.001825181 0.77423435 0.031405065
0.0031602427 0.77422017 0.031484444
0.0045341812 0.77383262 0.031042408
0.005865681 0.77384365 0.031103704
0.0071971933 0.77386773 0.031154467
0.0085303346 0.77389711 0.031202581
0.0098630907 0.77393574 0.031244773
0.011196151 0.77398866 0.031277616
0.012526473 0.77405983 0.03129445
0.013855324 0.77413905 0.031305719
0.015183887 0.77421838 0.031315368
0.016522262 0.77471042 0.031823181
0.017853236 0.77480417 0.031823605
0.019181004 0.77491081 0.031812444
